-9.522632531487435,-10.948409806306728,-2.243473683996102
12.414077007150361,12.618774439953322,-2.5148627653872357
-25.991056536723057,-3.421674839114703,1.1266791490682577
-0.8081587567877048,-7.874665474798162,-2.1384556216797383
-1.6712058643797196,20.38278671728323,3.4194878517859393
-15.59064799474043,-28.053777312072988,4.559744409486691
-20.57986239094701,-21.439222720691586,-2.3755716930439017
-21.204645472288878,5.403860918149305,-1.4792017484027764
7.146224410433694,3.5605051015509352,-2.36854868070106
-32.427808939462096,2.926336475066756,6.684447232689738
28.029537211448837,12.28755751275733,-1.3153194964149804
24.342763581698918,33.38961254541563,-1.7758954573560954
33.02758835591361,30.43006029924443,-2.4825426757240283
10.531979242607378,-9.624477255291733,5.203856330232869
-18.927549716026295,2.177520993395363,1.287900625596472
-45.59050164776559,21.10826461344494,12.912571418531536
-8.697217769707517,4.974065740112869,-2.056916371757084
-1.9087520037836043,14.498888286462332,-1.8948640305985252
4.5999110639103575,-9.829635344727416,-0.8675273947881107
35.33396821151464,10.089990004883338,7.543995010089781
-26.73356594611494,-2.8539293559378716,5.864284475888156
15.360659132843798,-11.490036652162024,6.996696865389164
-8.095455129906082,-24.17251348637196,5.233499664709931
22.776192126276968,13.90592424885876,-2.4630853508485004
21.09221916183731,-1.1227906684797921,3.5316637284376604
24.030943845913082,29.038493602213048,-2.083619995425151
-6.618481598316527,11.145516812813268,2.661190977679874
-25.81020347656093,5.906996916216836,6.116620666914682
-24.269569785848322,-16.505044278290033,-2.34614775255806
18.3653023513774,33.046484187715784,3.4895537619106602
-4.139985071702624,18.795894489477515,-1.538494537520102
-16.46427396500914,-36.73602201794359,8.264672475927668
-20.02028222755212,9.569402813831232,5.703165989948232
0.5873302721185832,-2.51897069727223,-2.315551316259442
-13.467956629171306,0.8827941488129164,-2.2567076239282837
-24.552535631348945,1.306991819252213,2.269398344683057
10.730897785886125,30.78207999637083,5.4506164816826805
-23.67153124029968,-9.019936984641728,0.15543599700680147
-10.13066900680498,-31.52924330702565,7.223472264522948
-14.540115961434784,5.4725828709101005,1.819465039284509
30.417328120897473,7.884019776372393,5.651140788130211
-2.1657442502263553,-13.117371700872575,0.40801220053669823
-9.871205066785853,-15.038056054676288,-2.106690536606002
-30.47906815311692,-13.809729580303811,-2.261935314475953
6.192095183033635,-4.873288038825176,1.0210015748658678
0.15225770419077153,5.31507268321541,-2.2408002453181903
28.827066421212603,36.62823492181944,-2.0032620063968554
-7.387504270935685,-17.040707391707507,0.34192840222559207
-13.294501032139399,-18.235326361280084,0.6925651412298193
-36.93791688831142,-15.655258832298545,3.7029256175175775
43.459265987153586,23.001156084296564,-0.9052257628751746
3.4570130095300406,18.154151356844487,1.4772583374990587
25.734411917556162,10.536291342489879,1.5372013091586327
-12.257145739868502,7.832253269590112,3.9294536002896963
33.63919567037674,40.64890561607953,-2.2676405346812007
38.65183884024622,19.257731281722975,1.3252726313909844
10.081428759268306,-6.098827182917253,3.6533269695627646
-7.205328395090049,-2.8473021075069207,-2.402190978269279
-2.738934424114785,-19.56534990395407,5.0776809398516844
-19.780882795998334,-28.580282888366625,3.6388343780984798
-18.683155827886786,-13.04403886859845,-2.3854942223517193
-17.94523494735573,0.7345568618935573,-2.103391076801218
5.45858483987957,20.3713687451452,5.4205138365440595
-16.865554309717414,-6.190616730580227,-2.3278724555369568
21.46961671947995,25.943439082048936,-2.2763579563353376
23.85955103211289,7.131155080748624,1.3765948021264938
-22.897831326201906,-4.166301126855479,-1.0002579717427282
-3.965940834274955,23.425346491659802,2.782466291470406
-3.5142986446237527,-10.493471956689346,-1.990209044477643
16.825508284036935,31.1706145613788,0.21734825924078902
24.48016529324686,33.578078817795316,3.32171576732737
14.974591345354122,22.213605286673058,-2.4726699295768295
-14.013713559609903,-24.50315797142337,1.9081144986783745
-1.9763412931955757,1.6768151963245306,-2.378236490323791
15.765427179454838,-4.852976130004568,7.925987916013294
-12.305505694343394,4.459904704898871,-2.0236921518499704
9.964970438836446,-1.7711504070252657,-2.077860682852499
-5.7234436597985425,1.4585810241832942,-2.404148702397683
18.00794014449309,15.405598337257668,-2.4810107258122227
31.73729842710036,18.3233574780665,-2.477256886070571
-37.85424750485379,-17.714408094190258,-1.7962211317666308
21.199259958437825,21.548817488032277,-2.4163611739419912
-6.288587073268625,7.536153393990321,-2.0150688194739086
-12.831872393119463,-12.418568521701566,-2.3137918976058334
-2.04425046089692,21.664731703641305,0.13352527931345823
18.473079390785923,1.2866221639671134,1.4802526671958063
-2.94446839486149,-5.148440769411794,-2.2461165879789666
13.70540409916932,26.153179940286314,-0.5435823681836998
35.06393821874726,16.408645051436284,0.23754511596525613
-24.170093010386932,-32.31221720009259,3.7244616425899553
23.912796230417992,18.978378666085888,-2.4403597571552207
-9.557727659766547,9.402685478396728,2.411254910490461
20.556614285819457,10.558885358240401,-2.419384118542387
5.3253806591295865,-11.37990479029142,4.40880824333876
19.006863881176336,29.744939627266824,-1.9513138237840602
3.4885657243694004,-7.001836207461551,1.1113868642915188
1.6555524279381943,16.131634331134094,-2.1011916078713933
18.04143274235392,20.235749987704246,-2.5022883428223137
-32.70685028059521,6.2282177061468635,7.691440365154107
-17.76516097242861,-9.40235024931785,-2.3539692661012035
-19.098077874587172,-3.7176110838207874,-2.2786263090204786
28.80146695716868,5.240478127788129,7.142236083941799
14.626266671877623,1.7432044234912623,-0.4520458475775989
2.5582055991745767,-15.110374829513658,4.958739535379917
-26.692400141812204,-32.25454213183329,0.2568954807135808
-28.96850895583521,-0.592454294098838,7.4469849982525425
12.955067575982547,-3.6423272599670424,2.4202232064222304
19.067832601154553,-3.3890717167614484,8.727227115607848
-16.312181551034417,-31.127533069140124,5.433510925664332
-46.243763638644346,20.72543383570164,17.086580640229656
11.392855260473691,24.606759297234902,1.165398326576159
25.70955993813945,4.677900147629227,5.031427588299149
46.13340875288318,25.14596808137445,0.9672814057747201
16.03378820422383,35.77549776887982,5.079777103207968
-26.009216887157734,-13.765581255529614,-2.352324930934897
39.598549891904256,19.729416655079238,-2.445639046499741
-25.59437341652408,-35.10637602227341,4.5483604463503715
28.54298946007652,0.9342789723248477,9.240415555209031
11.655575062526703,4.939938681297992,-2.276680965456823
-9.222618216198383,9.529557281413746,-1.7183316471670063
-9.852593965105788,-19.97886953918469,1.5058225192433643
-24.06260252294765,3.3685004718762173,4.988196627053592
7.214953944476747,-4.126337431346266,-1.920071238810563
11.784830328819211,-0.48239145431535035,0.21713862830763908
3.9367221331902256,4.00163528894546,-2.365625453441943
6.670569702602782,8.693178989801435,-2.3900709573749808
-35.5505916873418,-15.584629053109701,0.7146069799428443
-9.335837039434296,-7.790343568530106,-2.3411581665939543
-4.53136024778802,-15.3898009637894,0.6894961663218848
14.966329281337739,14.484276339772562,-2.439185040870375
17.584679944721973,5.021492174872578,0.33667197164245716
-5.388394062404926,16.53796182989285,4.24363204436855
12.204588067239609,9.444396080427769,-2.3859932461874753
-11.414903749304731,-1.7887521193991225,-2.3720661185971643
15.18770666377971,-2.5075669982743096,4.361765541216136
12.208032313406253,19.10505522637107,-2.373592191455716
0.5230815979760642,18.259941112810736,2.5952663838728656
-28.80879394559371,-33.954850365526,-1.3665774593814202
-4.779930244755154,13.533466884748076,-0.7934150143695257
14.94782880642459,-10.897744386808155,10.034127815157037
11.917938393770916,-7.011517750711754,6.436376912085218
2.523836046770341,-11.458436497290558,0.7931318152901597
-22.503151719544643,-36.187667792886394,5.521572797669118
-32.63595351539126,-12.896625126509598,-0.21532276351433827
29.378235337083176,9.572008357652578,2.85190010187673
-25.943861579125016,-9.163198881992114,5.297680998284553
18.75672984352478,7.949594489471569,-2.385817021278256
-27.42756481944256,-20.691432841509233,-2.32246203149134
15.595175699972003,-7.930158078561449,10.341088996007759
4.026523709863432,10.312409298388292,-2.272787032313224
7.543383711333804,18.002478057669972,-0.5990237607125586
3.6398578398922226,-2.519205341886612,-2.126969565925221
-37.04767108397683,11.40416059750669,7.958041598357304
1.7506868339250636,-9.62170774690838,-2.00775818663096
27.545619677587442,22.417971539184418,-2.400747957876219
-6.520021468915493,-10.777667570559078,-2.1061455321411815
-27.049067201339227,-2.5523080022207814,9.160776457021349
7.326448343524269,21.8763081938177,3.5669984465616973
-0.26939892975168656,-16.458693539148857,4.664268306546529
-35.32372945715876,7.176819475844328,8.794217383616456
-24.643714957843134,-6.065793915061828,1.0907469024037624
5.954938541452889,14.71569614527457,-2.255360264590056
-25.821963428606843,-9.120145268206118,2.189082551419009
-23.13514918517902,6.811894162311022,5.260456475008501
-22.925756103021694,-19.130530648346358,-2.386837504767991
-0.7471348339913876,-14.035324753211485,2.8855169670866183
-22.710555470576043,-2.7067153665652195,1.54604929855018
-49.878140476511994,18.07741663839622,12.943659721414516
-21.6877443877012,2.225763189304668,2.282430208636692
-3.4538062926085162,11.059311328150017,-1.9372200902434153
-15.77820862054063,-12.841077308650831,-2.382463590672255
8.453097338473764,0.90240646128155,-2.2965166451424306
-17.533669831017466,-18.26582925955883,-2.336967563305855
-32.017956795804864,2.493649919702091,9.527162970060889
-6.781899984068792,14.040910925088617,2.8043048086554947
15.761356853003738,31.96052668382902,2.8485887531522853
-19.604904427064223,3.4845295998430044,3.8339149982443415
-19.14904630508888,3.403506449474615,-1.795150140659331
-5.072029982615585,-18.04024912708941,1.729666548573019
-6.128524204419939,-21.797998791032107,4.9389424129427715
-13.53599222036853,-4.0456444283187665,-2.3621765443086393
9.93931719959568,27.423977078067015,4.509988338870863
-25.4852267346265,-4.637082322339468,3.6801497026240764
-12.227968314664478,-17.212231422509614,-2.210397021795316
39.53054626748272,9.730032481651174,8.357804379839855
17.19742519475005,-1.1272523928158396,2.881622032021406
15.660585064128368,25.18403007747149,-2.3706149499539366
-30.783290535619784,-5.992241881261543,7.24478228987011
4.529466440186806,1.2335266222552306,-2.3991916365092125
36.68212342382976,12.955881348703569,6.014877831532821
0.5031504416569776,-5.332330618765905,-2.103887700776329
41.15594188050138,18.647303294746656,3.0542954224309504
1.5840686366921168,8.912397882818368,-2.208489438011566
-12.691327340971528,-6.917670314279572,-2.4167778246913905
12.776928333532734,16.234615265447527,-2.419501955030992
15.46147253450113,4.21068093613883,-2.2766220405929327
4.364283275006734,-9.95550501644443,2.2316197713162413
-13.741409486135042,-20.93402828982503,1.0762164817682836
-17.14577591076017,6.214171814872438,2.819694940609677
9.72120399953496,10.637826452336576,-2.409486127641825
-0.3816108318765116,11.658524139741633,-2.0978378274390357
9.628925677576499,13.553788564681899,-2.3620564574209917
40.599629894342215,13.781524344475814,7.710797869877811
7.871828093407891,-10.434515431252551,4.767462157238957
-44.483967646234724,21.937300822533878,15.378680673103071
-14.250592216086279,-19.051156762956833,-2.195928003677743
-0.936205358834584,-14.282801019622429,-1.854626751593303
9.613846837805566,21.4509604165571,-2.169668978414935
16.237546851016376,9.374659793474086,-2.429410337046618
-0.08085508575573391,-19.745316857471686,5.857665241108377
21.908935675674133,5.108348884787185,1.243600709589397
-33.00673364530715,-24.270593373029456,-2.264778237569679
-3.518876627849883,7.5195527901020505,-2.1338092484346274
-8.006725224515504,-5.445146144773776,-2.3623787234746816
-0.8242288175691364,-10.582930050557643,-2.043822391183
-1.8362510024204466,17.200684090056818,-1.8109832746934271
13.769174520220414,-9.529871640738419,6.10776143405339
-7.3071882934254315,19.1766678925909,5.814910469321209
8.520275906123695,-7.228978195949764,1.7276075432706994
-7.835622928617526,10.386523612044442,0.3992868438109408
-23.469240109752914,-7.966621980560999,-2.2876015904561395
23.199789882068966,32.65629597067902,0.7374664488872376
19.858500287897893,1.3831146433713082,3.8328454742157105
-5.466010661212594,24.816166697977625,1.092111677760267
-20.749669544760394,-0.16967320308264824,1.6587137462222392
-13.431849586966809,7.038873544592198,-1.7759625438385866
22.008367346940542,31.798649796049546,-1.6620404476338018
23.652936037607912,5.514984900148015,3.4505233700055444
18.781558941909644,27.136416164040014,-2.230863796900865
17.315926562322844,28.62341804466048,-0.20527111331747608
-20.055349988354667,-1.1497136727992454,-2.1030553138732233
21.88133507533298,8.031693267664552,-1.5756255319486483
20.26047874390001,36.456660371596215,4.366460938834931
0.4299877176739537,-13.136477708568872,0.7265670088029722
-20.399700310024087,-27.271700897097304,1.4637071002941857
-30.742595780131122,-29.03031694469445,-2.3373930883216842
4.882822292612625,20.1924291410302,2.691788139991369
19.55254097022031,13.297127114908427,-2.4754760896569312
41.71762028170351,21.428215942981215,-2.0156257973806007
-10.228202405283257,2.8756670100501767,-2.1812525499277937
-30.399877141271638,0.8708470753049822,5.855634990376888
6.119080475399652,5.921990014045271,-2.412894130447769
-21.281540745887483,-32.42086457542703,4.541858890624222
23.704977591426637,2.236764896501371,4.584462391426371
-24.131905358168098,-25.139589557022745,-2.3556151428608194
-11.838176568004315,-9.63448666189543,-2.359887233926381
-34.3790825565354,-18.739029610066474,-2.164440072681444
23.73640534898662,9.379824661546667,0.15660606923067089
25.879693434087336,10.595773113037234,-1.2018673727830183
18.27455041314685,5.461907177201759,-2.233745512542526
-21.326968791697137,-14.503865018403625,-2.3805461193534585
-0.1919007438621323,-0.11395537446003712,-2.4180532276269724
-5.4439142466673704,-4.657209852637088,-2.31807458659988
-11.86812783359912,-25.63327262862507,4.723038694990558
-2.645698734053007,22.198598567233514,4.87624769204035
-3.3146469071205793,-13.006610198876494,-1.9069187062751944
-4.640310504532916,23.838160953284525,5.297198616033855
-17.775443301198866,-27.079582578987637,3.3911863443464463
2.769213795329403,18.155977261731582,-1.0152606848609664
-22.380736994599225,5.703579912361452,0.708800793130411
-20.1893996249868,1.0747313654961062,-0.8689264078248177
-25.173271649358586,8.088430173051842,3.756463417414046
13.838345157838246,-6.407112026549731,8.031179193743423
-28.68215401964699,-4.1346336434536,6.694406604817829
29.365801892440945,-0.12025000395982571,7.164610124974647
-3.256109366714746,-8.04641655372416,-2.1177770325047223
38.417698243357236,26.126784123974623,-2.5682842863841047
-6.447376092574649,3.7930966266975537,-2.219121413484477
-7.434623522408705,-16.057606921082336,-2.0723495188562677
-4.6677040331485635,-18.315980128220193,4.122789659732283
-9.944741789689541,7.064975163116476,-1.8860961853041784
-8.817165456104325,-21.04239075308782,3.527490405757583
-20.18060157706001,-9.443785981387224,-2.3326100871813207
-8.104046635657877,-13.396078683458148,-2.02866730498997
-7.323021448161864,10.76801595214147,4.931627018261639
-16.219935664212723,4.346192738845467,0.5153378595417352
-2.1471992742697554,-15.338339152892178,1.429527521505962
15.013642329991812,11.91556966195835,-2.483567540211174
-15.667615865864025,-34.95847327615479,6.889616975951312
-13.811333254963284,-1.4744224358407705,-2.3224102799520265
9.48035546012236,3.088886744101432,-2.3033900996977703
38.576698012361945,15.244206443956735,4.342514911628825
8.772097706064976,-8.016238250040248,4.169796967857216
19.070818998341434,29.84502668585909,1.0869460606603052
4.767461281861165,12.666677054519216,-2.262944006186673
16.59431130019662,-13.39302699561293,8.07589460849816
-6.255622424253631,12.55554490040889,0.7754407911992368
-34.1302761090243,7.371585331237652,10.826443281647414
22.136897457514124,16.277758426670715,-2.536153879738475
-16.9645587539229,-14.877390850745112,-2.3622378227783076
27.03850457308889,35.23695431571793,-1.3630736833711228
2.1252125831938327,-0.7117407595390155,-2.383146678906026
-5.857798226293011,-0.9179358164042563,-2.4134735540108894
-1.701782418463211,-3.152689531737619,-2.2996185097145765
-1.852015523966934,4.087531696212746,-2.2934490560824745
3.7069437472059854,-7.921436908712014,-1.9076619884298196
28.97562271347893,3.4534057679030523,8.656700072813106
8.703674018357134,5.313997656631929,-2.35578272031121
-47.97782826810988,19.414984916002116,12.627527060929005
-18.09813986446193,-29.916425280896874,4.530465614872297
-22.960499234018585,1.5050088841028773,4.138167925973541
-15.6239359506407,-25.12509406884811,3.4650147845045596
-13.11111511551378,7.286390645744782,1.5703350617672767
-0.15606590016492494,19.085605722020485,4.656584880428805
5.323876637616992,18.08141426157623,0.11565688152035455
4.55701515347469,-15.958135587283653,5.823538513546905
10.45666719139817,-5.317222800051142,1.520003703480726
-24.841765756648392,-5.7921757714601965,5.563849044167186
41.67760704602082,21.40766318256496,0.2874970455801761
27.19607021277483,14.393732651362086,-2.4596662891666625
-12.266809852232969,-32.59171070326369,7.149280936659159
-14.133740313158333,-29.569396910680762,5.4798335209272455
-24.836096044534465,-30.772573622048863,1.2135968531861574
-1.1347799098205191,19.794848743333976,1.0960461984152297
28.822938284735677,36.62298963079826,0.2859669125431796
3.6193351330708268,14.967402832321707,-2.187716510861196
19.421480656628567,33.958708128579794,1.6813025667197572
23.45377714199996,11.685512288531902,-2.418586275758693
36.96776631517549,12.548690043711012,3.6033344336131004
-1.8594112982309434,19.705827477332793,-1.5822140405747558
7.903368920317186,-3.542115449709895,0.15944440756036662
-38.04009174647989,11.200493103698001,10.191985682669797
-27.63015428258522,4.5618778772881345,6.108306740362628
-15.438247261330726,-22.901401652450367,1.1870099744066847
-9.485312187131429,-2.9622487284432815,-2.4244149610275425
1.525765221588955,-7.355676485286469,-2.0293790316811355
27.900299814720814,12.230902565759274,0.9349002409612995
17.18260358389553,3.126405276292576,1.611986617777688
23.382823116965593,35.62201396592029,3.9329651093870854
-11.232548865691285,-18.567527457025033,-0.13315590146185644
-14.563559910196364,5.481406662464404,-0.47755373926430983
-23.36605179510743,-0.7648256637223202,2.4475177693132935
-22.103885981335896,-2.3596900319841407,-2.0517728862566145
8.170030303739102,15.590366479178194,-2.2806525048862314
35.21371502799054,16.478735138992267,-2.1491964212497896
9.057582764013928,18.949496302201393,-2.1988112351345084
30.726996298206195,29.737305461356677,-2.363776584969408
3.796649201971322,-13.295422705850159,4.662078642100791
5.528501621093023,-5.438820163161446,-1.101804532716669
-15.668691847512552,0.6413705447295882,-2.227925782177369
-20.95083950961457,-29.49064708508272,1.9997404635907827
16.11467878481838,-3.0686454634251827,6.677235878817728
-23.238541205510867,-6.3286392818909025,-0.7391468008523063
36.792958463666785,17.77136581450187,0.2507172394084015
11.786670611630747,29.126927520376636,4.46405758249817
-23.251388647309962,-10.19291803143282,-2.3432521151120085
-30.413608818759542,0.8712404384466752,8.219380298407797
2.3323985965375225,5.56632887344963,-2.285606216430686
11.88614329888748,7.257043118051167,-2.328530824653033
-10.707465251930845,-12.938678697257716,-2.1761173280192994
-28.696554586028547,-33.82256191685456,0.8165879212979464
-18.342594513859183,8.220745870571983,4.904047130446298
-18.949584264669603,-22.89828418569536,-2.3759040718605537
0.08839476952415522,3.085719880869161,-2.318959434459262
11.838077208491148,-0.48457102237072464,-1.9810129365596088
-9.05705420130307,-18.365691810503407,-0.1256500721104488
16.827076856812663,31.1735204692764,-1.958283217964673
20.112278690744677,2.647744536900636,1.8723731017449843
-21.32955612201034,-4.973259123210459,-2.292900855048582
-20.133514262026402,3.5784834685571534,0.1254754182182161
-14.20801406072047,3.251686695087769,-2.070731302485426
5.564231435205928,-7.567062827840664,1.4522168360977543
-1.436116772057237,6.923483522154078,-2.192389376865902
12.970845185298973,3.192638526000934,-2.2334877005206684
-3.753469412844946,0.4785580757697706,-2.4287539111884975
12.496805666051102,21.850825055821474,-2.3233644916788188
23.68673884875444,35.137377386794576,1.8212167999836981
-7.801720553819641,2.09050035237351,-2.288637999425155
12.828191136636875,25.227478785008902,-2.262344780234582
3.6908126335910465,18.165883562327704,3.8056322955996897
-38.086833763953166,-17.823249985982162,2.8425473665436796
-25.086881462750004,-2.6781383224290947,2.954709261304378
3.119243870787409,-10.923228241160038,3.6756385365114923
-11.346177329155047,0.4644359596205816,-2.331308821609493
-46.79429278450729,20.2863079480601,14.451742632344125
-23.11237007837159,6.8051871009714935,3.12183798465377
-3.6226326640588673,23.117794092794732,0.7181256254380046
-28.641381748236608,-0.9374995826255162,9.662325617251147
-46.85532533964563,23.825966690871095,14.20009199404677
37.899678568696686,10.82265585504834,7.58895267971293
-15.063331436657048,-7.275739286099262,-2.3766192156217207
11.139806353609426,-5.324664910021057,5.382628385309726
22.6928182455313,8.647002532313945,2.2414458364871637
-17.373340131108655,-21.526023546002854,-2.2112302601100375
-3.972523973184159,2.607624192212648,-2.35547773581047
-10.478216513795472,8.890181438400067,4.260681507683724
-7.401911153780334,-18.95718066209457,1.6267895809429405
-3.5168755915886045,15.966922925384509,-1.711655812374655
-7.6391487133615845,-9.003714350973933,-2.2734844258171893
0.23901061394696052,14.602145788711109,-2.074814608737369
-9.828292197395012,9.205278789287133,0.24790656627245772
13.66424982024378,0.9516944252119807,-2.1177847393555123
-4.829135108713176,9.124352985055015,-1.987698091267058
23.089600711997296,24.652305238466674,-2.2832321565322293
2.7805333608401526,-11.296570990513102,-1.3624690962302695
-26.79095033744292,-32.37362814209027,-1.8059957658653527
2.118650325946803,-4.003059138055827,-2.1082173057397093
11.811308784767993,-2.2491741599986725,1.4081214925881445
25.694224914305597,34.34977994756927,0.2632122773551841
26.650016269394246,28.453689774801624,-2.155075807459161
-26.59451354007758,-32.13625799466251,2.3058961202697215
-29.597870975444312,-15.664904471012088,-2.263693150730136
-33.336507064857024,-13.648773164180438,-1.9912995279256662
15.708166567495704,0.9005025535702152,1.2577192205671839
-13.10173539924615,-23.575233525646322,3.4947238856976366
11.433412497973055,14.527517743729101,-2.3954119012706205
-11.396045997359536,8.30831005009604,2.0036392222988244
27.230574925415848,5.997808390987358,5.36868691898619
-6.234723009656831,-16.565047562771813,2.514581021731427
11.759054558877889,-4.927269475678266,3.4442205850269714
6.517285665615388,1.6041620267413381,-2.3551684037491185
-31.41765351634767,-6.516866691331716,9.091829714887075
1.4186672784398824,18.215398749370877,0.7852302023840589
-3.1736636454104485,13.611363325357427,0.42892691553547385
20.350364978204837,0.4161988846646401,2.130938912462969
-2.341005768653426,21.928865185930775,2.3087923641179096
18.18053581140812,9.90967686053293,-2.4249405455627855
-32.596014032517814,4.563084501982194,8.891432859436424
-6.912564911068895,15.256528798203865,4.524748431574787
33.53438468253966,15.194059798064947,-0.2259026945681835
14.256455832740102,9.695410213166113,-2.449421702502525
-15.74518698681227,-4.496205418280273,-2.326347245066916
-17.036251199044685,-11.282626717938912,-2.3930511391423406
40.736237643657546,19.67600897837048,1.3883572891876157
-39.12450255193067,-18.897524857844214,-0.7998953590058676
21.770335350981924,7.990950061835765,0.42693498703760663
6.697500213844635,-12.654513632956535,5.222231719672014
13.355304262680848,0.7656199430134145,0.7394868561811816
-24.60966701522885,8.241859300069695,5.660917514972854
21.76961015095744,29.860161347978142,-2.0427595349391168
-6.202953161993361,-24.34026794426255,5.802607005462313
-13.55749103048058,-26.661694833388914,4.624578553987177
17.43726387096384,-4.9025002119012955,8.97860876679207
15.516018635185393,2.236688800204694,-2.2271571736454776
-14.131596587839548,-33.7254165011105,7.040555461251351
2.004180746137288,3.60631837523671,-2.3039157024648342
5.340455291356407,-3.505554783098957,-1.9807308141396458
17.00455990286068,6.962078553080676,-2.380837966302233
10.255394420473843,-1.6932173614068753,-0.06377902125744231
-14.58102912621445,-11.283380772012356,-2.3889178452381
6.032265116790544,10.547492957772434,-2.339499055191003
-15.179203465382756,7.718635897596776,2.847284052555625
-25.94192844296311,2.020431478225629,5.010020284448666
-21.453819097938215,3.5421337762095484,4.4640745865137355
-18.316551070319353,-7.499239504082924,-2.317946096198857
-6.0147448384503335,-15.98058713635621,-0.7338484199213252
-33.16291514965725,-12.172674173062534,1.5182533107796465
-36.64793689380178,-16.604775960897808,-0.7407053157166106
8.118549806299404,-2.3904190800459877,-2.064805915465969
-4.610438223890148,-20.14498235948478,4.774050524109798
4.336693157576393,-0.7160099206758226,-2.314830182692426
-8.444959918905244,-1.3233523720340161,-2.422118672565178
-37.95720262271141,-17.7625873367675,0.25714590421870875
33.60322789913847,40.605442908094126,-0.3234073121493043
-33.82533815687431,6.012036042859584,9.280873387982497
13.854742007603498,5.27929091609833,-2.2923637778244115
0.9906687521238687,7.0767597075572555,-2.215614424975149
-3.4412762086586217,21.960469687552784,-1.2287786748931429
-19.42292658607685,-11.213721543577641,-2.3479614307347965
-34.402261723129186,-14.580581609963247,-0.6878755646113727
-4.931771497647105,-9.136505469127405,-2.1315340046305358
-5.463344515967507,24.8040621652674,3.29095686019764
13.846531736095828,-9.334196391024747,10.431472588005105
-18.781187629311315,-5.613331173122082,-2.295673088461453
0.9930587712557559,-14.258151332136375,4.240048610982854
13.108729321323633,25.779175515061333,1.2429491414073546
-36.7679367890379,-16.659146589768433,1.7348426902020002
16.315042789998767,-6.370277276681941,9.500374824091697
7.664762563000237,7.061950284048727,-2.4076233672670835
-5.074075417375803,-2.7657296943149636,-2.3522544345802543
-11.557777169625886,-20.797038522621342,1.3152563753734199
-6.958842055233885,5.758822924931593,-2.0866585860173896
-2.069880633722881,-0.40292071467325685,-2.4144922414366468
-8.243808317334704,7.913367147604312,-1.9106619805049456
-17.34913073481798,-1.2083408324501541,-2.2534124701956992
20.26732034564639,6.879731895776216,-1.9755030005303769
-28.288782067333944,-1.2736428125409955,5.813540238009234
-23.067251408632526,-5.08079445383206,0.7248852678351186
-17.25077297382261,-21.374159627274768,0.5056659258266495
-2.9137866975873026,-17.64807786760413,4.3639984569606725
21.072825359291127,-1.1217582887022965,5.423763651581183
-12.925432822741167,-22.600285139085134,1.4392217501210474
31.24847533045935,20.147729755414517,-2.5133291747661315
-2.1029257101546865,12.421204820015731,-1.9478049752665492
19.835441633519437,5.141247564223384,0.880655931055313
8.113414311594525,23.27370676400299,2.580349893098842
-15.084906324699215,-19.658859223647738,0.45618741638723065
-5.4776798792983765,24.869145969186658,-0.7815095616445282
38.79900467014953,19.33105457218383,-0.7980308359682218
-27.65592500286655,-1.9261935338971554,7.489140915484983
-4.915873612948831,-11.731858041163083,-1.9666974711910965
37.19555866807499,30.271563514086868,-2.6510415276178123
8.577742515922193,9.158284259528676,-2.4160054722531505
-21.33025019156315,4.061823158754452,1.7357071292978692
-8.209722165904946,-17.731696981569268,-1.8035370238468054
22.578774555074567,20.296422436413838,-2.426896913363798
-15.993041521903033,-25.028434859077613,1.641903851216007
6.7753041115227575,17.352365006052704,-2.1816140093286913
-23.71030181428035,-0.19388274334716535,4.264296648150249
-17.13409073584885,2.398584802863069,-2.0262016648722136
-4.061895032741419,-14.447390604925767,-1.01447683407891
28.95414977839026,6.751030762969727,5.724404737646208
27.41858252047932,3.9524853561321796,7.1199124860015335
-3.7704389450074305,-16.474665171980156,1.9792919844183878
19.775222437069363,22.736069940324416,-2.408717488497802
-1.3177031945331528,-6.100936479508814,-2.1901787548641565
16.558356349061896,13.475999658521925,-2.5002636276249866
-8.140712141096895,10.257314074379153,3.36569637314918
1.424427950243425,11.172200434482457,-2.168524064702807
-30.3212540699798,-11.981934185614216,-2.203881429441973
-23.305858809163805,-1.3360556931084813,0.4297617847012789
14.608899218771386,-4.107303304329282,6.615640431883019
-24.583516898506907,-8.009794547325061,1.429278640169725
-10.963784528624549,-32.737162411142634,8.423096407591071
-11.952611617907419,2.27608182000682,-2.188232043497696
8.732965719615253,-4.713945782822489,1.2858767757559944
-7.356942815821917,9.507061725992067,-1.8586276689005081
14.638128339620648,-2.9740688815180563,2.6863645524601183
11.754349010200844,-8.135377841507784,5.016131208793885
43.318965597909106,22.92690100707888,0.9023034050304042
-7.18070439956595,0.38224654461831004,-2.42458091591788
27.537852415179024,2.2578571363672877,8.196751377372909
16.668938097937062,3.886576354219149,-0.7356115427145522
19.23034229463305,37.8177287116335,4.9686910149962165
-11.76299924572276,6.34952002195217,-1.8991005330813104
4.108057628561833,-6.546487202206998,-0.5224426398184019
25.75422305967887,34.42998953154029,2.3768289277494117
28.28314424736548,8.076552315162632,4.178827139798219
16.93287647383855,34.336107952086685,4.483616920623414
20.649292670966965,35.098962404045515,3.2552269885209384
19.670109985986414,-4.501757575618672,10.002383210010558
-22.74802459493023,4.62177885684137,5.063195385312699
16.616548905176177,-1.499503504591514,4.727505169884968
-10.158587733439411,-22.666417203695662,4.153099176805478
10.276336930993642,0.3363686035963972,-2.2426849623717637
-5.269131634786194,13.333963995424021,2.0369107605596852
15.71603739648234,-12.059446035211819,8.926866980259488
14.6353065740918,-10.397261149379908,8.356530775618406
-10.871431091091672,8.556007867303707,-1.6202077073463639
-41.41453410241369,-15.780833274363967,4.639814942630403
-14.104465435845336,-13.650172407491922,-2.298720043764274
-16.10775417309575,-8.77986438134118,-2.377027585067421
32.09263260259672,16.484350184490452,-2.4388404052110095
0.06922930964639212,16.906229732062783,-1.9799660940193389
-1.6019901995747363,-12.564872516484174,-1.9584152036571765
1.3761640825080732,-16.78432297277682,5.221607183913127
10.847700661868188,24.204005060008722,-0.48829724213687903
-13.078422478690893,6.650387252412698,-0.09002848189416385
18.814799593475698,5.8758336122349375,-0.6049146053497144
-32.36234240652503,6.575146306359839,10.239270444389804
17.305373630135914,32.05960391564426,2.0139459187638535
18.093182998945835,-2.5328472018589334,7.436516443552096
-25.26116912631101,-8.574891401477801,3.790001051411906
13.578826573321352,-3.63849762889153,4.170381251568166
5.372187040349311,2.928221596791385,-2.4033601912037663
1.8704273405584992,18.22536658559493,3.76130118472964
1.4640884281743658,-12.284358330619936,1.9127599687235806
-3.2313850699801763,-21.186140973806673,5.508192550807305
-12.219012883019522,-14.048506022834308,-2.1805307590708076
-4.862336462585522,6.283388907540129,-2.1462871134352812
-1.9989519322921447,-9.255102981537886,-2.0652811975546266
19.973795330981524,30.42861046647605,-0.670091398099289
-31.84797997930602,3.663952600449625,10.809167232404791
16.755711866828477,16.619045593200884,-2.4706700558193
-14.25513697882001,-5.633148045029082,-2.3698719311514957
-0.9337277496642724,-14.245002476332738,-0.08759490927710636
39.361599480259066,21.454853454777098,-2.4781296330350795
4.891220944794211,8.80125208494829,-2.326073124694303
-5.943644787100213,11.571412056764812,4.2091182256850885
41.43575606438021,15.7889198133244,6.299696167256882
-11.877913188222127,-3.5500769007295228,-2.386952847347825
-4.242388888824871,-6.29324367360187,-2.251534053008095
12.806871725554286,-5.5520476582972185,6.707018001587969
-10.398195675801219,4.660241717640064,-2.0492767198769246
-3.5050009738337065,-3.4764127869537846,-2.297899833226485
-6.243729115138195,12.531674058071228,-0.9464348952162214
13.414786501483137,11.19404669378916,-2.4822279306288215
4.836155954849232,-5.942326780142892,0.9927271995593344
-28.00532318633693,-19.045623935527736,-2.2893959961096373
-32.58266890444948,4.56121633040131,7.176262598198346
24.875672060760174,5.8000814604156234,1.7266450987126616
3.2241848265154056,2.3708155955314503,-2.365460244533787
-2.70396246367447,5.778147584696163,-2.2385727448589687
-18.913654024599335,2.1759223628143363,-0.5842743413074939
7.806786410131568,18.007862737622627,1.0849849609890259
-23.06794644546304,-5.378587086265935,-2.186272680949353
-12.335271855175447,-28.453690254799156,5.57739934601614
-7.71087819174491,-7.281403282573831,-2.3132802955632865
5.3013469985030275,-9.448191006165343,3.6529062368540126
11.71947049643635,11.066727916171164,-2.4921845748176588
3.936536686197168,-10.330876069818055,0.611140764586156
-17.268742256637154,-3.5820017925563343,-2.2851800104740203
-6.534181376392605,-12.468776554324364,-1.9999490219339038
21.63534729993651,1.7739046081901515,4.179677877291347
-24.17695785067324,-7.550427570317279,5.524682574875072
-18.775926288175963,-27.85258080425739,2.2706249384926402
-24.29365398778879,-36.03768732047419,5.089925556336873
-26.920913321500755,-34.20623947791872,4.017740540982157
-10.546468913763416,-6.618129805702484,-2.397334455829934
-35.640511357088,-15.624047938451959,2.63055212953796
26.016301962139266,6.066033927067591,4.1303441390053734
1.1929914533751316,18.200343958592903,-1.909495158779655
-25.66748304656441,-4.34553739316823,5.344493261834173
8.550216926455546,-0.7715850216192554,-2.2064894177013685
-0.8649372836471674,-1.6505066361128211,-2.3577645119759394
-19.89186733717863,3.2842476598337376,2.1106861704672744
-34.5068495979325,-14.624908696834897,1.6107313346160397
25.89214361935992,22.150449273479428,-2.3033366044206747
-31.461194975035124,3.228789883132356,8.128564839601186
-3.334115051090529,13.545626855490042,-1.8075234664115234
19.33729692819252,19.17957421642649,-2.5138512095681462
5.315173829954542,18.905065698511137,1.569798325808353
-13.35247440528896,-18.31484520723683,-0.9741128430727365
17.60712010515738,2.538128450926152,0.10915404037427563
26.84023658172902,3.1989037384900687,5.204430094198393
1.6081399745488032,-12.215438042112917,-0.3781172056487773
13.055152276875067,-8.569597349191696,7.269134649405377
11.224647726930206,-3.9130087198288193,1.9875606167192414
16.68094349636641,21.195133357478966,-2.489503314646379
-11.654736610245545,8.279795134491836,5.414203496073636
-15.902335965092158,-19.21605260881607,-2.302206760737192
-4.876999294955875,11.91184874244056,-1.8286723674557686
-3.1954235178807022,9.413545914000116,-2.0408984201048033
17.216181392565822,27.68560869432079,-2.203824032881501
5.87352602285143,20.89101860002023,3.902791531192206
0.16091642621643706,9.831049243412352,-2.144645170149423
-6.229380485637739,15.763951418659333,3.0483804825220773
27.169578058389813,35.40777110039127,3.0169363189601657
-24.57313755477667,1.30808851027367,4.425586952262591
-34.088714989721424,8.243145800626436,8.556533141413306
6.209983194877178,21.09088665027007,2.3017414965920526
30.342271059366578,4.3739453687791565,8.686487660951386
-33.17408948593916,-12.176775789402534,3.2617099686823217
-21.731671354395868,-28.321015633430864,2.853575246627083
9.040666344575321,-2.6619263097497923,-0.6370697001410753
4.279205450836247,19.812626050109337,4.421198136541157
5.752397021719834,-9.166861054450694,1.8095090634359086
-25.30498206344824,-4.925840307738033,2.0607621796889126
-17.41091312401363,6.79816447114545,4.3178508662393815
14.802385682962868,-7.075324393330464,9.161610322460861
10.44847149646347,6.032368469195515,-2.3229780679858627
12.755576456526029,0.26087280007736663,-0.8624296648022828
-13.507837553713605,7.078694545071564,3.1308565751382114
-0.35567086492723277,1.5254185407359342,-2.3756117891800104
-10.228950120695677,-9.4244716149552,-2.3255694800014894
-13.831791215688215,5.400681224760314,-1.9239885192229442
-6.078310752492052,-16.149475535703097,0.953874270190777
11.261703180707286,3.365903731671011,-2.2631209748047385
-31.012983017213248,1.6508973127138709,10.471603144360845
-10.43386227218271,-24.900679032076855,4.8554842825981295
3.278789688598485,8.71142263350511,-2.2709346648536384
39.838131946236466,14.622858022480624,6.56131027036108
-5.947663801618498,-18.51065699448418,3.0060907880172234
-36.379752461307504,10.711624179897546,9.252530301287297
-21.51359447808448,4.370976287568722,-0.1347044460736443
-23.25054144881822,-1.3328845130707652,-1.5742667396605423
-23.363733093724598,-6.9829647562238515,0.7483557264407033
-6.461185717130059,11.19121206596212,-0.07929225836429445
26.84677713266524,11.378368901953575,-0.17891641318868431
3.037309226151774,0.6300196581162115,-2.3903155258461077
-22.68360637243223,-2.703503488363674,-0.1401716730755077
3.301412235417513,-16.959984932936578,5.8258156575991284
23.772964127801735,4.024792940406242,4.031461236913346
10.703246565736773,12.305791415572676,-2.5216190926356523
-11.551179264870953,-11.45696323640965,-2.3113975527750537
13.201210778873254,-1.5187340168439185,1.7217936152635303
-0.25419342577577414,-3.8779890401086954,-2.2331769260907484
4.865812395220195,-14.334421755052713,5.311829731599097
7.577655277611327,-5.8145907004678925,1.3569819070744422
4.174617072898866,5.580910819364842,-2.3499416512833275
-1.3779441050239085,-17.692521501558737,4.793976599122997
-4.29785621526698,-16.864704461494757,3.5729673657764627
20.44677653480845,0.16719640088205992,4.723604918550125
-3.697233605529011,20.319854205273156,-1.3961301720588937
-25.13401830628916,-2.683170394162204,4.5458852027783205
6.690376242108759,-4.51010310480085,-0.44602779738980197
-3.4460773339046478,-14.250912322706617,0.4499549378430545
29.208958526442313,22.603054843038407,-2.49660444885071
29.632686655657512,-0.48503327750243164,8.791965972523771
-0.5954648190223516,13.22582307081918,-2.0469519069684083
24.424927613952434,33.502312370680194,1.272394759426553
-19.680009927525216,5.015317830006823,-1.6234340849976348
25.649448753458316,34.2899201433864,-1.3141637985011192
16.916228896335827,0.13832657598372622,1.9811867656716151
21.951912393716498,36.286753877340445,3.9144344621311893
12.042543564016077,-9.719361540891489,5.644546161435347
9.912733048345801,15.101320885090686,-2.3406085815301663
-47.42200390933315,19.870729501934523,15.942298335622612
17.877055864391135,30.386808966173795,-0.6490476449142525
15.91096074732283,-2.028608181228228,2.884653753138032
0.2959438132793454,-9.041326406166979,-2.0897718414189526
0.27192528302500363,-13.295996121708493,-0.8989685035042703
-12.293949021957596,-5.210498323221174,-2.401374413397654
-10.274448050062915,-0.7155998360692012,-2.379268816440803
-24.659027067767575,-6.069562831532632,2.9741027034800256
-20.23106211542781,1.0769491622643772,0.8707195090973853
-33.44656974485351,-22.74606099188531,-2.2359564325020496
13.746516614595413,18.855330951639868,-2.44288506022021
-8.761334139090941,3.4208998712453242,-2.172782893833988
-4.0709657080894175,24.04568959866846,-0.4489769054285977
25.20013861806591,17.59400770706413,-2.4567943944896924
-29.557524410427675,-30.044902518630188,-2.329848479205375
-16.997541188918902,-26.600434434482967,2.1338865962602642
5.52278235350754,7.383229467866969,-2.3697728378550447
4.2880362998673185,19.85351268468852,6.297720192348963
5.616197824152152,4.457292570194083,-2.4175492112022905
-7.9278917620594305,-21.874170790017473,4.479766960937654
16.720196068865985,5.447769570786792,-2.2785690924582354
10.593811419665252,19.06248069699511,-2.2831377452657122
6.553954100904377,-2.559019024271326,-2.087238558412917
-20.736897995668556,-0.16956876818366995,-0.12724586335594124
8.167422937143558,10.643898893717422,-2.412855497612858
3.325149022416249,-9.414529475843414,-1.9224267659559247
-0.6288037563843775,19.210470879243154,2.971773761740919
2.1058299841344548,-2.285584884800895,-2.2174113184604254
13.403493239621332,6.8846915425533135,-2.3297453483363264
26.94599364328364,11.4204194636803,-1.9783341839969235
-22.198155293025007,-0.45398927657877924,1.2273598293249812
-1.351058179456057,-20.611818722257198,5.852983320670249
10.670784868538657,9.35794673331872,-2.373078124137143
-16.02716805908105,5.367551866499269,2.19004294317291
-13.297817644645995,6.968634975672567,4.6549656922535885
-6.620589310425734,-6.0998983565421465,-2.3137467698091765
-10.812062762305366,-17.872459279421786,-2.1868212656593
-8.042055770686108,-11.320091897177635,-2.146941830776887
3.8079969657850303,-4.03260190628026,-2.023013329992552
28.29776698794207,1.2740473396615624,7.280403014858091
-9.855721950312317,-19.985212397581478,3.1657987500824856
-21.877483979843692,5.8621540791431865,5.232247613825772
-1.5246741037380385,10.576738169395297,-2.05750987255572
1.9964534187671736,-5.881444452531234,-2.009670943081005
24.383785667260433,33.44588025463061,-0.2539737763053396
-20.93006158434091,0.08570649620313785,-1.931852980706339
11.696207412459529,-6.689231673858115,4.54307408100893
-29.71478193262479,-5.030750221352316,7.745913081022418
-39.14660538813182,-18.90820074812514,2.9387390359541388
-13.004128645438271,-8.61226613674046,-2.4115543872122926
2.0943414821787054,18.2045328823503,2.1460609658107486
-35.461285882492305,-15.545479273181725,-1.1882583677056922
16.918023743802625,-3.8719072545816635,7.820901166149557
-20.906005777626067,-3.276038323597487,-2.215373135386203
0.4287181492270853,-13.097691350456113,2.690382243868053
-8.266290721321623,10.157034054392385,1.8605124829609578
10.140303879921126,25.970532289086723,3.9609302213883217
-19.396179977455958,0.3174802492536068,-2.030871126318443
20.608307244328092,35.02929677570493,1.7466979531513656
12.492734989986253,25.332488422490606,-0.17331386314577424
-0.261331394211544,7.9838885937953155,-2.1579431264700712
-11.523567619408576,-23.367232518615726,4.028307112753463
-0.15282746396240568,18.68957099276904,0.8032652599277501
25.01814449785551,10.243034117989206,2.8301885635164843
-28.24820542708957,-3.7188243434217143,8.073317815081873
-0.19650111697421097,-12.005065006605628,-2.0075450360927447
14.320356636996074,-3.0929644573095096,5.548318117211848
-1.9073817607561936,-14.960146866398242,3.096164628943031
5.153005942873827,-2.0120129065563193,-2.172967368311957
-1.274486681742722,-14.12305487204762,1.4845602321319114
-37.60075661554323,11.574413572702978,6.578059236304074
-13.249035739013182,-10.252631265684723,-2.380069275620271
19.471124427527723,34.04551089898499,3.6200066094388594
2.8870996840097303,-11.138716149526232,2.2155341118575773
-31.184341974944502,1.6600191712165167,7.214151185518533
-9.142083770673823,9.681306149200926,4.30844426540056
22.177260630261745,4.3170014526723985,2.646009188252451
-3.619830762379624,23.099913785268207,4.2050774129366175
7.039160618962995,-7.454347465529354,1.585191905604646
-49.25833309017249,18.5397634127439,14.218088331148733
20.9893000835365,8.89581636425548,-2.3865943614777114
7.8219119320915285,-7.695027558357063,2.964139138463803
3.5028144163421913,11.896563886509234,-2.2303399746050623
1.464050087120602,-11.120930648334552,-2.0172890453259797
37.42979170477686,9.701615370457896,8.434009284938748
9.71879907951912,-6.379565175712333,2.238403366303864
-12.180732037377144,7.783425305569685,-1.513321479972743
-44.45258149361755,21.92182271866732,13.38936782660712
37.362656043533995,12.173490061922625,7.067116125522213
17.065600943007563,24.65712514659875,-2.3970437198471903
23.1620368878021,32.60315441375866,-0.7362663704917705
26.70905374076757,11.319998113098872,2.318872687556895
-45.62290412018541,21.123266860343904,14.914701402699926
7.160889203352653,0.14645212028552732,-2.317486849771444
-33.47348438231821,-13.704854994560218,1.1100420004236164
-12.337055336001187,-19.306970810215205,0.9847116817652632
-29.307703934241847,-0.23965355162855762,6.017041717348596
-21.939014378981497,-20.213571855871262,-2.384616255668055
-32.18675294222371,-7.089456517325383,7.613749483566949
7.907659583523325,2.2581162037092932,-2.3302377426396728
12.461769104208374,-7.127067575372956,7.7869952999802585
-24.771417468308282,-30.692435171741675,2.666174399746116
5.1621795500517615,16.066028306600973,-2.186531507902431
-8.895502257091707,-4.296616290603917,-2.410192084840691
-22.643784988210523,-2.1366324093836067,2.947039781563212
20.099233336516026,11.93541835808545,-2.4472402420395554
-23.53674205548368,-17.756185091712588,-2.3567888320046535
2.3412108792124275,7.605681264279421,-2.2548969674419936
0.8311902804698318,12.680685143880337,-2.1247914311548897
-15.159263799074894,-36.177970570851706,8.555928833363874
-22.92243025918015,1.5025135487551315,2.6902892857607297
-26.874139729315182,-12.176376275702804,-2.3584464404996246
-45.07670233402656,21.546006057788162,16.84572080459104
5.590135768328637,0.25168408542698206,-2.358185121608587
6.626325644402573,13.436714843069401,-2.31637246435818
-25.264658342199912,-15.002774580481512,-2.3488121940138837
-21.7287073995305,2.2299671287380565,3.928301654169044
15.044401413542532,32.49351948131655,4.193522097906374
-1.6412972017217993,-15.992731996934443,4.132009578866959
-24.40348748032718,5.901117287781423,5.7999766014776215
16.810048571781493,3.702582507085879,-2.2303259965629687
10.28065787507043,4.506823425443912,-2.3045058325267176
-8.048705262826516,-19.88976043768363,2.5128557796543487
14.113732994911555,13.32763651597304,-2.5152494544602386
6.543748677844093,18.055124928815818,1.772556957354199
-25.61732653390292,4.553163363193981,5.6752489207077375
16.110035340863774,-12.678881737282858,10.162110226783373
0.1389882405213488,-6.795937054389379,-2.1075875780965974
-15.012549927761652,1.9140630215984147,-2.1501085797752144
23.18143760436157,5.105945113513478,1.8974630415242744
8.337285978498867,14.171433945655066,-2.33592827558713
10.154210742227761,-7.991542812422537,4.534248661268882
-4.63705755024793,13.660522278458568,0.7974674267052775
-19.20961142965981,-2.289461854412681,-2.2656286015596976
3.914884283492547,18.125827149320536,-0.11378466216926486
6.698095478726348,-11.279586512858469,4.784853969756079
22.04307401763459,31.848795508795497,-0.23766550388550178
11.01990236798581,21.671360384338247,-2.24401265429607
-14.711295905370882,-3.240311093879117,-2.329074371462295
-27.44008435800308,3.1568460073571427,5.6705778812488346
