-11.07554912986983,-34.63354813758792,-2.0100397692790617
10.696521362257013,6.021152501349264,-2.3633999418590537
-31.51385044741159,5.158550269259815,23.38097947169498
27.02598306339077,-34.825383412207294,-2.436824220323714
28.236615494184903,21.912818103987437,1.9757906961644138
-13.105590293809499,-44.7375069357317,6.622994551613656
-40.76379466807241,0.11081888432631423,28.33662627972008
-43.23145633355112,-30.2715406738361,8.82430578064302
-33.700502399304426,-19.518695222993664,-2.1528537697024395
-36.190642883872066,-31.04706990627207,0.8778396600516919
-1.9481332661001614,-37.57079045722408,0.6926017879011293
-33.69043115733688,2.9935367887140463,28.816001204294768
28.352463517298578,3.772255359686911,2.2863717153837837
8.02329193348507,-8.900848137975615,-2.460148787258837
-27.622973505541726,12.743214812486459,29.320854119520746
-32.01843696346554,4.437307414141196,11.342627271378165
-25.083245669322057,-24.342281685498584,-1.9321877474358844
-38.951621296030766,-15.454378707318618,-2.316512812491209
11.728852208181307,-21.447740468865952,-2.559192443781906
28.166735861438358,-12.16484625643584,-2.0739964315145576
-29.9438818652706,20.663755800433588,31.774474386358875
-39.775354054884176,-5.789649938536578,-2.7170620383853605
3.644249248420029,-25.03628123616596,-2.6486862877797415
35.65506321749982,-20.32657817533531,-1.7639026886981786
-13.954994206375483,12.10398270963174,-2.6244582632538864
-36.225891173419015,0.543081320078112,39.48398787368152
3.186596153945756,15.795557762936589,-2.2892962111048534
22.250703268050106,5.2203357625303,-2.3926931298771392
-40.59420801097055,0.11035785256296428,17.697020200928677
-46.4043829446229,-26.876543173607836,11.696888601737133
32.03557222142779,32.65358539981944,2.5287187494902916
9.946889188815197,0.5839618284912721,-2.43098050099665
-10.034077141474018,-39.60120705710256,0.7520909529840539
17.444406788134042,34.42274818601972,-2.13326852882588
-27.094620806927153,13.315403290341832,39.17781704315333
9.755900644481773,17.11292728279912,-2.3069592824010154
31.27206565660883,-23.32498798125784,-1.6766872168066096
24.402088189894858,-4.302532110767942,-2.2870455049986003
-17.435632573413848,29.269752608145836,-2.303013409855585
1.1156769424987538,0.30548652914576296,-2.485067812291058
0.5856715994264898,21.47755782481998,-2.249335810179021
-43.62138308085501,-29.753548557366162,3.5693313121932593
-18.576478677816834,23.937445342367408,-2.4220752023154386
23.782455325821626,-27.72249845788428,-2.4690724501361387
-28.435314950600187,19.111889621999868,21.991356777752745
-30.588130824397687,10.19726729502207,24.221187310214187
-27.634148823742734,18.085096606817118,27.444590414698705
-20.926430747466657,-14.653110333424577,-2.3579422142018784
-5.717852717784349,-41.25851326579572,5.917646589600559
-45.475221945895456,-2.669758680777524,1.9577944777562752
4.962679645192544,-14.553947189517476,-2.5710362498928534
33.418730255987185,-31.99092872559843,-1.9882704749268847
-40.42802193899011,0.10990606549953198,7.270761603287017
-33.08389258776351,3.7600087713234154,37.193546953697016
8.89632299535152,30.36866732321445,-2.1391276169802267
28.339600441828175,-3.9274721404361874,6.240539461362291
-32.41886930510945,-35.57387480674903,20.98210660194597
-15.418454231051632,-1.8591455558548438,-2.793001008117482
-32.35777318863197,-35.5068328140659,13.61210778543705
-28.052555384068366,18.35892168869964,38.38722948588544
-6.3833370276195955,-22.824840085132237,-2.4812358991453998
-37.94140056922665,-29.444145296209733,18.865056487179764
-1.46489797919945,42.9460339760396,-1.8468035537452578
-30.684692796208672,10.229458481948264,32.74428157983209
28.42933097607437,-9.866847225110128,3.150444034706935
13.603495705521047,-29.91430336200609,-2.6268886314957287
16.61536631042608,-35.37876451157293,-2.6421393511624527
28.338856614044925,13.736085169011597,-0.966477770738439
-33.86270024747386,-33.679083751288964,4.408177358495213
8.430261045582986,44.604644428392824,-1.9509519616660518
27.78112939079785,37.24646302162541,1.4260067889321928
21.162756755456215,20.039219909701362,-2.329754741549987
15.571584814038474,9.536621744770903,-2.365968174730066
-34.467694069006114,-5.017073702794974,-2.7842657254093988
17.39228067534857,14.553741937234713,-2.3742008040571663
-8.760392471876626,18.65332707693587,-2.413481195503471
5.693991844581869,26.5400144175644,-2.169795245514643
28.2670986739799,5.90394698593162,6.6709455579761885
18.84595627925117,-7.596144655730728,-2.379659333398783
-9.29002635632699,23.414826005941556,-2.325068835063073
-6.493142068869216,-17.992757737986764,-2.4785260980152755
-6.322919704134195,-9.92518251908449,-2.718573934806195
-11.78700959872659,-10.111788071072,-2.59665902548391
-27.652777285476706,18.58593189981956,2.2522488535681187
-27.240338025923705,17.827368157542587,17.145207394710088
-3.750265942360196,31.102085366288037,-2.1176625039304726
-42.52737142610918,-20.613379145075044,-2.0311266978503397
-31.977787319800505,4.8323389355165,32.740184167424694
-29.634151487989467,-10.92372209485514,-2.5246693525077064
-27.740450019880456,12.386836741036868,9.829975537511881
-31.570225814352185,-0.6891339510749985,-2.9146140674776877
28.282098693179133,11.221157150824192,3.5633947389863616
-27.906087245708672,18.756186106903847,8.641861604669101
31.544965622307917,37.283675427288266,4.50773564238137
-18.17941967753171,10.070334435867105,-2.692807051421304
28.394384539064582,-0.7742865712835811,1.5702112418663958
32.087330014272915,25.538151569452268,2.2669952132291464
28.17018994668474,16.31564258088118,8.366951451853968
-15.146260820259402,-19.795168851638,-2.3005723536153635
15.141610513458199,23.76801462158371,-2.2527193850008227
26.43499298220234,43.83344315873771,4.091770527752222
-30.901584633818747,5.44851158335197,2.5082705496587105
14.490440275316628,-0.3951398665369362,-2.4237376129125368
-29.65794516201853,10.702820224225729,3.6925978250913443
8.355235965479416,-40.003455322918064,-2.7624998259622964
-12.911026937467332,30.34670169418781,-2.2293115522727667
26.504092464439438,30.55725257209539,-1.7384611892900657
12.535775337929948,-9.11283481200418,-2.396194922037354
-19.15717562870639,4.854008055714807,-2.807680241420584
-34.14838127069635,-25.182557504992108,-1.8235359710607193
-41.509284511939036,-1.41589016190598,-2.2959475641152105
29.946386306764534,33.681873261092285,-1.383147160075536
-20.644763590972854,-26.306058189574337,-1.8485315259857649
20.40116401225737,1.1977112455765886,-2.3933677356847953
24.224099300916226,12.48485184370801,-2.178442841938996
-18.967435088605576,19.54479206967027,-2.5138094769312658
-5.653650471399698,27.068721335754088,-2.2104741790643536
-34.5343237166307,1.7906853711592297,8.88786681083707
-2.1712804664651637,18.00708308692716,-2.3501196592429547
-45.84846958429059,-2.6916712978037958,24.18757359226361
-26.591025391888458,6.391370719295725,-2.8631171628832357
-7.1954841512318675,2.798100157954113,-2.6031199295093845
-35.20460301622607,-32.52555665497661,22.310312412760727
13.10874848131753,29.35717888849273,-2.1733342591491778
23.377093623695743,44.758797138876304,-2.170208518955099
-19.041106691256587,-10.412767097128585,-2.541633589636229
27.147514149412668,4.978148858037407,-1.8657118771709724
1.8348457954389736,35.38598108319155,-1.9587477295308093
-12.515127307346654,-16.356450030049714,-2.4119769770772126
-30.82774227074028,-15.41248374530693,-2.3298163943329664
-27.49864579721045,11.876306861712775,-2.7647121865813755
1.0861479276950323,-18.500854940050687,-2.632954681826208
31.788578753227185,-21.36567889004886,2.117289059968681
21.46299243061576,-20.545994890481357,-2.375069912115241
-29.846661793973954,7.173889590467575,40.86328517261683
-26.716386375530725,13.129523442521673,1.279377407150053
28.309930359214974,19.309816152258673,-1.4727823660161303
-35.47480874376037,-31.97726131528769,8.589327156369773
-45.62959147949872,-2.6788214051524646,11.151692257699397
0.22604801589163281,-3.8503793496824796,-2.543077970078023
-37.355861158711654,-9.249303454937012,-2.6014278239850324
-34.02773304695133,29.514243170383825,-2.490019752235296
34.70782243088505,-37.56661640562641,3.457339252436804
3.1257044416324145,-37.488912377750545,0.6925599623351436
35.82931900494139,-41.76516794643516,-1.6887645864776208
-45.15403121062362,-7.139468181528035,-2.5271013372062847
-18.515142854298833,43.518886587878086,-2.0325881562442465
-10.382780872160103,9.939180821966554,-2.5849365151062904
16.29543365633053,-15.987020579361838,-2.3898979383262815
-7.9505796153913275,-2.17696976506769,-2.6672097313255847
-30.330603245117274,20.93062554671143,41.164221634201
28.50029091978135,-7.970568978692413,-2.0004808780845504
-15.091203296475872,2.280514550429822,-2.7448755358124215
32.638735480390174,-29.018937684476366,0.8040248943040833
-8.652119088672087,-30.93730344206873,-2.1715386740983016
-22.73347451100058,12.230870329405587,-2.702571114105064
32.2634342199796,-11.643076901861535,-1.896087657946651
-2.419973501509234,-11.279631824779193,-2.665023109885073
-10.708556067808345,5.5929768844104295,-2.6351554929018515
-25.010118229100673,-1.4682936639397839,-2.9340683697865337
-32.2904645497337,4.071797840909448,6.2664853622151595
-15.780343551778286,-29.330867570944072,-1.8411638744408656
-5.047876698467204,-26.70839539084859,-2.5088175735482525
-29.4974704759356,11.055880067354977,20.219849704135147
-6.203182173557505,-41.04928128986844,1.7842416378668478
-27.387095749216755,13.878951105622223,45.345576073876195
-28.858256201297092,-22.395237809840197,-2.0192885412132378
-12.549430900051362,-42.83899002975306,-1.918503200756469
-30.112928380059273,6.460537884977936,14.335865663028622
-5.143432529197034,10.95180719051864,-2.484006711756771
28.503800106051127,37.252596050498745,8.435855102973331
-12.06802280270429,-43.151519248259525,10.351007171450307
22.98106919593941,28.554470052210352,-2.026193861536084
25.575040328861633,35.18147387010485,-1.8693253714376843
11.608704664051926,21.577057435681585,-2.2614941369714336
-35.616468982800676,0.5339451526286622,0.6557674893066544
-25.197946515074324,-15.01010763306212,-2.3445284973290406
-29.796272112101096,10.752739005544239,16.189289702014435
-0.8734430832751042,-32.03061979802317,-2.561371027238001
-46.30298854902936,-26.8178174525055,2.2996836623998504
-3.3014472773885553,3.486549176423425,-2.5287642355281332
-10.269181865884866,43.77046398883219,-1.932242159805275
31.98000957703683,25.452735749830754,8.915153122053235
7.602084830386097,12.962551996814833,-2.323410116740644
-13.15949835169178,-5.035123601534949,-2.712885745939343
26.50366189437004,41.603198211378775,0.9081244979955684
-28.57305018809428,7.990917289120563,10.410976278869704
-24.4851278392897,-20.48898810483817,-2.1581821038670927
-30.042504057217133,10.841598035650389,38.434302308261096
7.071121950723644,7.386716375299682,-2.36225080620341
-28.538699187239438,19.694063499198855,-2.343913867711322
6.1985938936278675,-27.958922598842612,-2.643258662783298
0.7885053050958682,10.30748342998704,-2.3881075546669934
4.347955628666981,-7.72410269524981,-2.5115894254820255
27.737971991710932,-2.46463570661142,-1.882414046629409
21.24485429595525,14.876076946559445,-2.3938214492247027
-26.142301863036927,25.647523514288167,-2.475609017907404
6.244706442561709,-0.4006955290927255,-2.4580171265599744
-5.509784062669195,16.158428914792733,-2.4254279256470106
0.08419545728114916,30.970590919207954,-2.093552641258275
-23.473034178738462,16.198335551384915,-2.6323512667176128
-5.991601455107245,37.89427338656849,-2.1207999901706933
-27.48730583982046,16.576994290498902,30.93853320340913
24.964920041121523,8.172087627329828,-2.099809056935316
31.94850922214515,31.00474400999745,8.571878862271522
-31.128819248910503,9.954763097805923,8.399813209894326
-19.65128779208365,-3.603535680751899,-2.838423426048686
26.903883076839644,-15.778189469726335,-2.1083267305105484
-30.317014629322458,5.729904379312987,-2.8477884188289697
-10.52082374776624,-39.480849740857316,10.50139551564606
-8.568379909937967,-37.67730192464355,-2.1359622144835684
8.001478499405637,-5.097408130159477,-2.43838468776464
-35.63344864756956,-32.120260526242724,26.022065162762832
-14.925000009772042,15.761798423554227,-2.542174389231675
1.2179809359630582,-14.608156797525973,-2.6363043480172683
11.759581212585855,-17.703454693383584,-2.489043113977298
-30.20065902711358,6.8680799010598275,44.5547535438502
-23.858854368931127,3.6054424207272855,-2.82592031602162
3.254004659257072,6.621355765506159,-2.3871640672967462
-32.229758124828784,-7.980081409694483,-2.654135102153834
7.255959033139989,-24.15589975552502,-2.6405229847377316
13.197315310237103,-24.852720748107973,-2.5972576839609167
-12.309845120561992,-44.01620110827035,3.089567362342363
28.31580375962425,7.380919858683683,3.0634550213129788
26.385438223347283,42.56134831133911,7.742469573423699
-27.46733918652554,12.671416547936104,14.080375988192678
-19.773236656700476,-31.03834810403897,-1.5816565451471225
2.4382630530333222,-34.32644298856317,-2.32623963799273
13.140121316475266,15.149585160640267,-2.3486248380691177
-35.92104289282047,0.5385111797368172,20.06113717166187
21.670276798486963,-13.068871021969711,-2.3357390813936036
-29.00889828695018,7.730266901475585,21.981008096572268
28.200865950801717,19.235424811535037,5.27791377750104
25.833085067569783,-19.26819946390514,-2.178509278401551
-4.362094557228372,-43.08791717669395,11.699376083080372
30.96333604562717,24.643570177929288,-1.214469913173468
-29.25210189274931,20.18637038714187,14.977784491247496
19.108839029888784,7.043888103306324,-2.3851072881745052
27.14755931371456,27.00035487683485,-1.6455590524659864
-36.0767722179245,0.5408457996650751,29.983146328094964
-33.4827545846488,2.975083850026724,14.654240320555235
3.5548766534793685,23.524237660067584,-2.1959298522703894
-29.843172169375773,21.139538037422955,0.6732809178148512
-44.471501201078205,-28.760120921760002,-0.3249682092543983
-2.7567126069254364,-36.03624393328023,-2.443089334225349
-28.12195439022925,15.57791671699064,20.08241816161609
-34.72588131837871,-32.882274286773544,12.919285587531329
-30.770028230836434,21.79608047383894,22.28772775335545
2.387203815232545,-28.6315217347761,-2.6518482763775184
-28.620335917422217,15.398069363336111,42.175416315865085
-27.636887662781348,-7.933162071860575,-2.653887212791218
15.981872136378731,-5.546760522560418,-2.4034176073195828
18.22883101353619,22.089166597254714,-2.2893454514708993
22.563634851192674,-43.7797531013848,-2.72264057057123
19.760651275085937,-23.614737349759597,-2.4613976508224495
-26.668234395731012,-28.551801069416104,-1.6791106709368715
-30.276264294507513,10.507854532080598,27.989491966240614
13.28587700846985,-13.03442385325922,-2.4116141743798702
-33.24367497976724,-32.26165031778072,-1.4216628391857855
-12.571221475809878,-24.806575340059187,-2.223045369805852
-15.20538360497264,-9.570889821541243,-2.5525543179534957
-19.666513584832106,34.937378289975996,-2.2162825908301356
-33.63989725507247,2.989046638534628,25.370022531169756
-32.390331086608526,-35.542559247819305,17.539553315362287
-41.942077230806426,-31.731895354774856,12.149664624697854
27.82723372110284,22.71090096071427,-1.543702282545531
-28.46757418104162,7.961419211638598,1.998184438008682
5.371653725029915,-11.082235063403932,-2.528351243428352
-5.43278021865044,-13.478671499261687,-2.613558106225798
0.2505047651459882,-7.343983204208318,-2.5784974762303086
12.839263649192795,3.3467379857438377,-2.386220370735809
-13.168516254670854,-31.548750730085537,-1.8898265993078547
-31.466234412143997,5.15075592778572,19.91792406938055
-19.16816016020377,-23.227418303850158,-2.0357291249834812
35.97439396007422,-16.595947930452557,-1.702696361979443
8.363939859756547,-17.809168522610634,-2.5493887763836995
22.533774650044894,-1.4458938684957663,-2.3639274634061547
32.07149409718339,28.9094877135236,1.8556992839341435
20.556301986378305,26.193338268721174,-2.250766866555758
-26.789456121007188,17.532289671112963,5.353236577162357
-28.657026996009304,11.961504562766129,35.55585468150163
-33.585232981382106,2.984189487447537,21.64238795560849
-3.3299257353130765,8.101375330362664,-2.481911204360364
-28.96408243540513,19.467283814849534,35.32924313714909
19.66600109834859,-15.827495002436027,-2.3300147085206997
-13.10888636189547,36.95328663838558,-2.167484485238412
-12.661190029286898,22.49248621248416,-2.38236334430379
-35.868253469470545,0.5377197858251589,16.697755602449277
-17.34154716454749,-17.247514671405813,-2.257487294674259
1.7267349192354484,3.6253418517564038,-2.440448558307842
-6.122369605107826,-4.996706864220084,-2.664545229793319
-3.405914089274246,-19.316861288651964,-2.541538001082365
-29.646010126244477,7.125661318898354,25.337457347010336
-26.774078405398512,32.80576753616931,-2.3407918310778433
-37.90898962703907,-29.41899302252872,15.52622266494961
-11.479814571449023,15.567008427361865,-2.5062038825377284
28.38691755843379,-6.823028108926606,4.513978511381269
28.222492386118642,13.25447781069856,6.401213908359825
-36.471658575318365,-17.678123548477856,-2.240490297411306
0.23874315231345816,-24.98990952133454,-2.6163298257047165
-26.38792811862822,-4.504877651917817,-2.8025375760648736
2.38009078234435,26.78647042291089,-2.1496556291662428
28.41544634302051,2.0183953512667054,-0.874245783611076
-45.789402308482785,-2.688203577018939,20.669661195686565
6.425130815681029,16.522613324759515,-2.2970469858496303
-9.113546493335853,26.727107904640118,-2.257264758681568
-28.680608844075987,11.560148520236723,6.744892584379576
-37.744039511400764,-29.290984696567758,-1.4662184028373753
-41.88358073730574,-31.68763897233175,6.150795777586164
8.487898542316698,22.646006932908318,-2.2322126102413296
32.1000018702504,31.15176153564287,-0.8234868352865223
-21.269201224472567,-7.840239442990511,-2.654757140127256
-7.662649538798415,-40.543199814265684,8.470832430933791
-27.991139257748408,15.505452790379026,8.224266346933803
34.16613871725223,-35.2061348270204,0.9031709302871607
-29.749495555936914,7.150534889415561,33.344851364935515
-4.903492830657991,-29.955691360837225,-2.4264253914539067
10.253084696554954,-31.322160419366018,-2.6345189979791725
-8.614945668966426,-40.15474354401587,3.7906059536232837
-2.6032195030167697,24.07117742452004,-2.2347153650705023
32.034308945155054,-26.435945504128544,-1.2746408242009641
-34.750279980057,1.3745370095820666,-2.77999186780957
28.292557119647956,16.853529208279667,0.6062713571933854
12.44965231386456,8.71749851512143,-2.3498519471222203
8.64109655380796,3.551768511206871,-2.4012085308217297
-1.2905651727794925,-32.627350718067234,0.6011343043423882
2.6336844975120126,19.003970920857537,-2.246894631005681
-28.23512795760365,-0.9631059741304125,-2.9576736728651745
-28.231834285120577,12.192961417508362,26.199757699729915
-4.7897021867664735,-37.98364130745254,-0.7048107323026231
-15.999907079303943,21.148101331580662,-2.4476621139557233
-42.053105331609046,-1.4344400009953275,30.80845732272006
28.345202116704318,-1.1211860559354834,4.743093070359109
25.725587512834355,-37.71602925660391,-2.5237412019119803
-33.300997175324994,2.958933938234524,2.2599440531676533
21.771426977551883,-6.377811854587193,-2.375051641237335
24.78466315760062,-12.560117045031799,-2.2210817059349184
-44.932540962723,-2.0849638559493178,-1.3804295010690684
-2.8723639421714253,-3.311622557070192,-2.5910941645507424
41.102404487627375,-14.832843058117783,-1.3410255082577343
-16.39330598861892,-36.71297966907926,-1.7280017768128357
29.436100181039713,37.50819237160764,-1.463252288015994
31.977010656655697,34.2355340633118,5.486370500760143
-26.720837078907515,13.541311379468226,32.64667588455771
-34.114485191568704,2.609701265772513,32.17667395888941
26.52583727868861,43.98407752088819,-1.5763100188723942
-45.46646461807469,-27.84536579370402,8.914515029801853
-31.567073541721467,5.167262438784808,27.25182934909212
-22.63843996289567,-18.017825441107373,-2.3128371020782414
-35.6101492735373,0.9710532850595877,26.760469955142934
-27.93292592408338,15.473206010832039,2.947334426692201
15.364614105793356,-22.525908682996093,-2.516731505437488
-31.75089005108851,4.798051244032593,16.4112303225082
-15.060585873674425,-45.17633574447082,9.168937395546841
-32.07909118801771,4.847647518996925,40.03064737053308
-11.577994267809414,-2.4182129601963385,-2.73236989483514
-12.844624128292027,-27.84279455422777,-2.0727370023357783
19.967070938260633,-10.428611056423302,-2.358306647989459
-45.68057404266157,-2.681814488742782,14.188097585471539
-44.14779601419034,-29.325326699063652,11.560416581985512
1.6756357136392708,42.3624899057844,-1.8220743266489616
18.70908579395142,17.285337081446748,-2.3510378408180794
32.002512455566176,31.05715197733917,5.222672592614435
-37.84781427394563,-29.371518338990256,9.224204759604476
-28.216949143298248,15.181042646873562,26.626501739490493
9.239411612902398,-2.341064218876276,-2.449737568162941
28.504228639262276,37.253156115281335,4.910749977798335
-15.066410889951587,-45.19380869627106,4.397064392664757
-35.84091885481479,-31.51874361095245,5.589648000238128
-34.23495054460895,2.618916664526019,40.30113355143898
-31.072544681461096,22.010369289338538,29.342464740885795
13.961868024763696,6.143510983533528,-2.358421652132283
-34.23068719452205,-33.21950599863363,1.463872329815007
-11.747711546458557,-13.213111170155011,-2.5118603121592566
31.453518050234063,-14.510347231160338,-1.9148379632238073
32.94538952505871,-20.988133184233348,-0.7191397923712861
-28.07050764461105,15.549418231164243,15.41886503635924
-30.180681625399934,21.378614297249456,8.544060963456365
-26.92189826882132,17.150818205036725,24.597603761349855
-37.78966070298796,-29.326388687288365,3.2334776627756394
-35.35594509074606,1.398493913253994,36.7108404059572
-4.73351422410098,-41.649657135690035,9.143146086571067
12.524035609883141,18.148600206111325,-2.308478370090152
-3.6217679738061648,-23.966887988095923,-2.5375967861875632
-44.539284595075195,-28.803957054006272,6.211897887840707
-41.62713314305753,-1.4199100027525924,4.877938868317868
2.7042977700859496,12.604883141124143,-2.318496742622086
-32.26688349257249,-35.40709772958738,2.6481220034932313
-30.983096901614374,5.462883679169469,8.49895855847305
-25.093686692350012,9.055692023303632,-2.7929043801300644
1.881786547191048,-22.569674228197936,-2.6523873815206005
-31.350521443870317,9.603224489897299,41.48702798153785
28.31118913591241,3.061762971225877,5.121284170446882
-41.845593285124025,-31.658899006716997,2.255147853468255
10.33138012620947,-7.129507021501067,-2.416891053975246
0.2302515918784568,15.35878477406715,-2.3749302394983185
-40.54786586313761,0.11023186858227874,14.789585110139209
28.477570698302124,-9.883589580735858,0.1849632467640569
-40.71755349316125,0.11069317484673022,25.43552607476792
-31.214119327157356,9.56144208605317,35.57781401965035
-27.223449742829445,12.966413434975973,20.961008617431965
-17.91187660461181,-27.369467499431384,-1.8081751207021006
30.135403877190463,-20.25455014709079,-2.0071787871433417
14.585495793720703,-18.32590020002549,-2.452031906097853
28.161231900381736,-32.0229905053218,-2.3573500529596454
-27.57647011323913,-12.951078388565659,-2.435368486945197
-3.9965747014668023,-44.97901123265067,5.8509949452551
-31.351309512567795,5.527806261609476,35.560490923926466
32.81224419639235,-29.902164495400132,3.5486659775062868
8.111848582618915,10.07914538029345,-2.3268168248733745
10.840117939289156,-11.447889697471366,-2.437602382610535
-1.6560333618558105,1.113049982991997,-2.5246805081163393
7.971317799245575,-20.833360159819172,-2.6123706161068654
16.20089023624712,-8.716264977647262,-2.3837151744082687
-41.03910141981025,-12.878468150442425,-2.377702126707918
-28.95041378617523,11.257916171501202,0.9532788577963672
28.263039928068768,8.869216112334636,5.703458819808388
-21.981481886032977,-21.862289894391196,-2.095691270236415
3.0965053253030566,-37.13870552549699,-2.5192070778051785
35.08298627340635,-38.92022571720548,0.964647955388592
8.837554999707937,19.791796557320396,-2.2691992228038513
-24.094070658882966,-7.887021324287911,-2.6541291690978346
-14.731123948888596,-42.444763645142544,11.547415382072035
14.698176478016167,35.213466492647754,-2.109349628484042
-28.033361841794544,18.841729665549273,11.852297472634238
-9.095346829097283,-9.270809410616732,-2.666304850026604
7.376782584114834,-13.104785583495516,-2.514450791909218
-40.47795685930036,0.11004181665328903,10.403601714392552
-40.643215814639476,0.11049108329307898,20.771694439662756
-22.19096032651709,-2.399880142706085,-2.8920993711498624
26.537710132423964,10.529056526161053,-1.9299283683857449
-9.003220619013831,-16.73425365055056,-2.4621915078448593
-17.929812992890742,2.260932905437707,-2.794130296415999
-25.560215737904834,14.158863445555463,-2.6969786123642114
-13.064351162486982,-21.662782149108526,-2.3349312677409535
-6.535653484257902,23.869065247944075,-2.2842003608675734
25.911557905054245,-8.993014412788272,-2.1924838581604935
9.188360134188114,36.26343978214198,-2.0679732986970523
-12.99556268499639,8.968013399874055,-2.640051417573565
36.65716449792939,-19.721975424430177,0.7663239789971619
-21.346869736126234,22.543722447865576,-2.481781786371503
26.4924593080932,39.416375834152724,2.6253410693547585
3.8746589381245538,1.1122199324463233,-2.4499120327434083
-17.60544610484998,16.85326064779849,-2.551499043347136
25.86923872846068,20.589202633559896,-1.8276821518404942
-29.92135369125135,6.4194367499695595,-0.18777529752059052
28.366567761472428,5.924722383720692,0.5334933121537839
-31.286128510419218,22.16166230372767,34.32327730488974
-21.26651511042826,17.99316940662317,-2.5712011236519836
-12.615334037918803,3.528082938574085,-2.68929091482448
28.29641388784976,-1.8156572512266116,8.034402868958034
32.06077121959628,34.32521060113782,0.28820350101085035
28.384183489972806,-3.579219396873058,3.350498599815547
-21.800615349742706,-10.566943940586345,-2.5362968590098602
-28.574819772436562,15.373581154683949,38.086173326353006
-27.04013425419462,17.226141418510842,35.81306308764618
-7.502707473753403,21.14975232735777,-2.3493730922505436
28.28884416008946,13.711843706612473,2.125060669898307
32.03827824439535,25.4991115018204,5.3055955045792045
14.140581720141256,-3.2157790005246056,-2.4247079972653847
-33.915095413783604,-33.731194810992186,10.43345144100758
-9.75537815704905,-24.202992250365767,-2.4085643305533146
2.495967204780983,-5.672385839415703,-2.522544237206134
-29.639471517801486,20.45368747624205,24.383271387714277
16.846735636090962,0.9890379152130243,-2.397548200354281
-8.130990241722868,-40.30429958122449,-1.2618279956340956
22.920511127342568,22.243434744960496,-2.1590289547818906
-28.526652063654378,11.907085786231812,23.22121368404956
-31.152851597884318,2.3831412313827016,-2.8837975735940953
-7.23973344017909,-28.57285019443698,-2.3561938702448515
-34.18769199754993,2.193674828339549,11.550935710818221
26.591770744555735,-6.047364927378154,-2.1799300384977007
2.3277553639100907,-2.1213094532663046,-2.489019323830453
11.81287834453422,-1.4895930798430408,-2.444376659773117
-36.37032862819088,-31.201217924115458,20.19443542046614
-27.749783263193738,12.801715537680098,41.73868940515198
3.262979633785345,-16.640403574413625,-2.6218143852992957
22.959137953570007,10.102496022741635,-2.3151984453619425
-27.09105366491221,17.258580050720386,40.643103434660304
32.694837264789946,-29.068817502475532,-1.8802268958003108
-11.745913126434896,-7.393357728228502,-2.672292519339692
-1.9003887827554418,10.363456947644938,-2.433999940019254
-17.90658202753337,7.217515808449932,-2.7428774716661
-12.403324251451082,-44.350453585400835,0.282576310514562
16.126043759289118,12.200395565540374,-2.368183429347013
-18.464528241035637,-13.616576450475739,-2.4018467078123287
-31.606508841697693,5.173717663215416,30.119909983211617
-7.580039443461244,9.767555144211366,-2.5382632570432704
-5.953440425942002,13.529909809404606,-2.471554731191431
28.248791969166096,19.268114492921864,2.311464941867719
31.96512345069069,28.11034322574069,8.738986576906981
-0.9234264687582168,-1.4495164693276732,-2.5383106602344534
-35.93194312585891,-31.59879096333856,15.482396989437888
28.193855396981007,21.879634444553087,4.624137182582463
26.39209827352955,46.29465541460428,5.578881341191885
-32.29147438926145,-35.434081813207506,5.61451152125079
-22.978069927457952,-12.934528762601218,-2.4337954906755126
-16.126973127544897,24.936985027373083,-2.3739054070550822
-20.84561514970008,10.244386682191601,-2.7201815464331034
-35.71411676707979,0.5354090417386675,6.8772174896563785
-29.609711545744645,11.097948888390079,30.477951555666564
-18.573193049422283,12.817039799128402,-2.6428262064318266
-4.309784036610652,-42.5712040815798,3.9493903587089045
-33.88862873405688,-33.70487164371313,7.389869167313613
-29.04774366537547,9.683743285054113,-2.826157012272663
28.151815461390925,19.201968143832836,8.313963342345028
31.596315708295254,-24.79651126150161,0.7394239967829995
-28.7327718947043,19.311815815639417,29.494554367025422
-31.464466423221996,-20.90038100602169,-2.0881016339202394
28.324640705296275,11.238036046858657,0.9351807721671037
-28.831954427305376,8.063324062206362,31.061241036352243
26.434193866534645,46.36849573425021,2.950499176553909
-7.489625717881128,-25.5667371700161,-2.458970981334006
-9.800964205830057,3.13427489873483,-2.64469615591713
13.54012284238729,-15.783317133369929,-2.435422453027081
-19.92330425488513,28.452911174737753,-2.3479971696693536
-6.669665888201675,0.18187514242747124,-2.620874087662326
4.619637422301108,-22.118041907449463,-2.6462202446295047
28.328185127826156,-6.077632534475848,7.826788687232899
23.869279703736993,2.8781397030895586,-2.2190837217804105
-10.973022858301102,12.477756940785415,-2.569092287973541
-11.041984154854829,20.191712386780868,-2.409320359050362
-40.787370026682844,-29.312599107859725,-1.5414551318186533
-30.525411186187483,9.350478485412753,5.741592556546541
-29.067855331170932,11.303585538384123,11.811334343611126
-33.563757057749946,-34.21125116319781,15.507218863338043
-33.63509183198932,-34.283962089867146,23.807140010038246
26.56340437384738,37.5001690543147,-0.8460276305683759
-40.30818964935738,0.1095802940459296,-0.24733197199987636
10.613184313194022,14.599682416604894,-2.3387365598412475
-27.675575543729646,12.357868590045646,3.5496327705579414
-3.802347748930844,-9.109554865573536,-2.666648244640888
5.245484021317624,13.995132825986422,-2.3108205776279394
28.261094104811402,3.4077013636516815,8.065910829276248
20.032338408809217,3.9280965724621084,-2.390737402237971
-30.82043203193998,9.440848638139974,18.522488797598847
-26.770858272543848,17.054596924799426,10.270468671763014
-27.841519798740677,18.22081000042327,32.86798944428532
-29.45839754586854,20.32873145501967,19.986724110479834
-10.501709698934347,-39.40912162260692,-1.7528263080788589
30.761767600215254,37.276214192923796,2.077127672004318
-16.866590855121416,-3.957145370743727,-2.6785995146199544
-13.348820681495233,-0.2913861178100423,-2.741151569671782
-5.497415407644793,4.7682299295685775,-2.553563420636963
33.35809714914109,-31.932886143349883,0.8501427941298887
34.23212167314739,-35.27412626324194,-2.1125294781282675
-26.75485139937619,13.558548807452508,36.09421366918949
-28.604867298331484,7.99981546046071,12.948716689062447
21.485744587188748,7.920061519784435,-2.397312612799327
-27.14372310152433,17.764138772314627,14.618425200450307
24.01412738106561,42.123431819131724,-2.0839013575635157
1.871454601499586,-31.87734306385913,-2.552554332970321
-5.4565971267880835,-2.5626491292635523,-2.628068174300361
-24.3439146275585,0.9629163170164048,-2.853233009651765
2.4594786590027953,-34.6251212988763,0.639049334238566
22.493354524100845,17.902352638452417,-2.2980145707392468
28.357705860212924,1.315856848719894,2.971981710018092
-28.638876884126347,8.009326793179303,15.661329480171393
-40.881230208925295,0.11113814007086754,35.70435152224275
-26.051927033551998,19.431427767477416,-2.597980841562239
28.38646811152784,-9.851970992656149,5.785388753684275
-26.668721561493403,16.989529887334417,0.5821311923464298
16.055219580933205,-28.52194811287299,-2.6163481616762847
-0.7942141558878947,3.5823240709803414,-2.484454282127075
18.959680354333106,12.594033467082339,-2.382901281021648
-28.6298884146312,11.950176860662683,32.988300839419786
27.20142765456571,16.20355677093474,-1.7502518160224751
22.67404852040677,-29.96974128224747,-2.5403639478932134
2.945664551782728,-20.23694898964743,-2.6497805424318233
15.508386733294603,16.200548517705055,-2.3478918851841
9.80495282304729,-23.046034981394698,-2.621987934683611
-34.15151762463633,2.612534185188079,34.67422614695375
18.056710749115727,9.306243162521756,-2.379023754228961
34.120295644323186,-20.577205688404902,1.7124498517294175
0.06500491875761834,23.91151270615282,-2.2070317528113055
-26.89016843523795,17.13060445182993,21.587820767950568
-34.000098013421066,-33.8157364940637,20.20847453214774
30.761139315463645,37.275452855757486,6.866155513539567
-30.07749846046181,6.452936620333987,11.649856176615936
-2.0727227894278006,21.647867305744203,-2.276694408764347
-6.638016164372764,-7.466036698490765,-2.698789836332566
26.436275639833703,37.320698495869735,7.071247965848803
19.86153815380693,-4.7738833507014915,-2.3923034710014814
32.01740916771625,35.13334455465675,2.6276478089801323
13.864673186291744,-7.026196680729747,-2.4032038799078017
-30.897938020874935,9.46459010644016,21.880204080771843
-3.194518582442427,15.294814164310038,-2.415802213966639
19.839139397824656,33.828335483504304,-2.1678788111891
-8.169777156453197,5.064763195076689,-2.596702122290344
-15.426231117084214,-22.35417639743105,-2.1710963611788094
-32.6777063101158,3.713845401559863,8.88446710653928
14.08347735285685,20.408389751552843,-2.288670915105962
17.639356149864696,-13.843211893876747,-2.34745670919494
4.36861561739829,-32.83473760473792,-2.6478268915051224
-5.975541971464042,-20.39823040396767,-2.4893044224499494
-31.06008842394532,5.870345047433528,38.038494200287595
5.866863489793745,-17.205628310358833,-2.582615649225845
6.7251259933279535,-2.8070820209497516,-2.457147220963014
-40.82643206505453,0.11098916794458835,32.26640024354215
-26.513933917261895,13.436459120200817,11.675906581969567
-10.653798110637684,-29.522102914268757,-2.121600868323721
-35.77275877080734,0.5362881747500245,10.613485514626113
-32.336868994662105,-35.48389422320324,11.09044366502199
-15.74812519900691,10.306319453400022,-2.673888141688123
-35.821052416371536,-2.9866436644945544,-2.8733491240182323
0.2687922386215424,17.92961389864002,-2.323442306080884
-30.97372068170467,9.905163738414954,1.797633038504607
-35.4259838541299,-31.93325018993728,3.2240219041511926
-26.477852326501978,13.418174062210165,8.018839624275678
-0.5098933078669419,-12.890838940539634,-2.648545069032631
9.973576793976594,8.345821089264303,-2.338835438482653
-5.811026329272064,19.34555705806786,-2.365632778751622
14.527984337962172,-36.616712638146026,-2.6629137225764112
-14.410997459013918,-45.06358721856726,-1.4519625527996616
-21.52486753307651,4.342427226978883,-2.8452158643510366
-14.95868631253498,-16.824620218614765,-2.3568894235551494
24.75980661474052,-25.51347979891394,-2.403277192077374
-35.66227366530608,-31.36164183718755,-1.457448478608664
-0.6204227058899745,-9.669081353004406,-2.6174019487120184
28.441218805738156,-7.9540485031287185,1.6325434106902323
32.11105595582853,26.870312780521292,0.2569170174804301
18.595344327709057,-34.00401948894071,-2.6198501676404953
28.465879505622976,-4.659623254654043,-1.2396857081454156
-41.99001535664022,-1.432287989079835,26.967934856264467
12.91183222024629,24.7215538569523,-2.2294586856912897
-28.42661670286888,7.949964788036818,-1.2685939300977862
10.800342735872379,44.93436549747293,-1.986185431510008
3.0709833754199662,-13.089491353802162,-2.5887021734297004
31.166791639384677,-23.2464669390774,3.5887431259012548
26.47535722070538,43.90037351711761,1.573310218326375
-36.279081638656685,-24.098505870001823,-1.8718388953478784
-28.49988774740884,7.97045622499409,4.575522309241532
-4.291953425233149,-42.395076788563976,1.30772321411432
28.431711373915256,-0.426234685880009,-0.8726458012840672
8.341433894495248,26.083894255174016,-2.18907994464741
-23.47296010803069,5.947533167943665,-2.8358739569328772
6.175830241590715,23.175659210625497,-2.2137522515757158
1.3084486151476302,7.99338027616077,-2.402863660431405
-41.687676072682265,-1.4219751344318432,8.563413169483383
-15.562834799835972,18.14113210044912,-2.5023096611038653
26.445366334582978,41.511690791070954,4.542958798621058
25.58977128304065,14.404675141725164,-1.985042472392006
-4.847529293626871,-15.825160729035918,-2.5589887398702666
-4.029378400690842,-45.348196864369015,11.107459560884266
-45.41719732760445,-27.815192659805607,4.257258247388327
-30.87353211228266,9.044220174530617,43.938488581841874
-9.253917222342784,7.447692484970245,-2.5909897589516464
-37.217029527704895,-30.374282982167234,26.05737807136849
-30.972770467306436,-2.9655562043410906,-2.8718490764501183
-16.706067282862215,0.25044941006027643,-2.79360908619935
13.801178388889193,11.839694354247685,-2.356117821426565
12.51995824257884,0.8893129887815876,-2.4166835596421694
-5.01796409861629,1.880771753017072,-2.574901522515315
-30.61273911778806,5.785796196572931,4.816912495566552
28.425348954920928,-2.8776990880089546,0.5259812112940839
-37.76681569965394,-29.308659990208987,0.880085115309613
-1.386531507826068,-18.1249897111783,-2.5825530821567524
-41.86733053549494,-1.4281031848049064,19.499651469970846
-8.444133598453783,-21.714601354007403,-2.439151816720785
-31.717162889869016,4.792954547606555,13.984011775543266
6.594243264764668,-6.963962011862545,-2.4649728891036253
-41.816996271871744,-1.4263862728053662,16.43561680562284
6.588215737350962,30.708041990207526,-2.1230331401750044
-43.15244966943548,-30.216218608629045,0.9698258374796064
7.710002494143499,1.4138141673099156,-2.430422141493642
18.417119373548335,-18.068550530602007,-2.3813710525292273
-20.248326584830153,7.027500757748836,-2.7771442241067676
16.761241592168947,7.375293308639604,-2.3727449814199706
-6.070681591418949,30.959001584629704,-2.132615773669026
-45.02457417611925,-2.0892343894950884,4.1602227822302105
-10.94493603067307,17.87110826528284,-2.4542723619854487
26.542541113089936,41.66422750797763,-1.5160655827040492
-31.525567973317358,4.764001588296381,0.19563712012246223
-34.1131847448958,2.188894023461354,6.581706667881314
-28.913813446488444,19.952923371985488,6.764007925509006
-12.549508681853682,-18.671582920457457,-2.3552334328724056
-17.569782364627503,-20.256655762615054,-2.143478099395235
-3.1708668253297576,5.798344759052513,-2.502790136917651
-21.780421722352724,1.666165964947083,-2.8303848002731593
28.23192874973233,8.103968475237012,7.9346349484429055
-28.219001462173164,15.631675114554051,28.879557226929823
28.3137365176155,5.19200374429086,4.089623736666504
-4.331662161416068,-42.787311920882594,7.1907107071925696
-36.40363744242904,-31.229792743509115,23.77520306753899
28.206906914700966,16.802508431873186,5.904673646677985
34.11345201738719,-35.15184437663061,3.3111761514164675
-29.382610293405392,11.425983960927283,40.911997524621334
-31.947083276204502,30.582157258853872,-2.4447576390639156
-29.78369535252681,20.55321385411033,27.88508283584809
-11.992561918731806,-42.88169445256063,12.616946360862421
-14.02205455383276,-7.226822821122259,-2.637588585791685
25.615511516659403,-1.64363545901737,-2.051828141241693
-28.931303781902905,8.091108721880085,38.985369595141464
18.57807481423562,-0.5066055870721204,-2.4080986588447164
-13.648768867301039,-11.421196769047745,-2.528429500867251
-9.97347963160449,-11.787870746717486,-2.581771315742617
-37.571365519348184,-29.902869041381912,21.638693422172146
26.4909945135994,37.397946388790245,3.663486476758343
-29.940068309694073,21.208174830868128,2.932916000934813
29.991014838913898,-26.664862406435493,-2.218407484742329
32.047818888226395,27.493042236332244,3.897329092889357
-36.740038270392375,-30.7438136339012,17.47346005890146
-26.66941176548049,13.515250587291481,27.434438547950556
3.7082177831326337,36.629050245596886,-2.0351858435786827
26.397251873659688,40.335177780557935,8.06002735053328
-44.96815764134798,-19.131736308164204,-2.1002776448648275
-23.0447887391085,-25.28750839017759,-1.8912707246714329
-16.31204115570021,12.481147885464834,-2.6613207945282324
-30.475326196829684,8.927568086876402,26.389263343664364
0.5194784010518134,13.133163933964694,-2.3637669190943282
-8.487767918068942,-19.008444741302633,-2.437998019750476
-17.502698768090045,-8.750561682171272,-2.53550437931604
-30.555985921968393,8.951196880327002,29.943996282522384
9.976846697299779,-19.357868890307053,-2.550455094571728
23.458084707147297,15.170554952034957,-2.2331197642507994
5.658013735199764,44.86958809761731,-1.9436716709297257
23.154502101589117,-18.63509335040007,-2.3758765173983316
-45.88582889072934,-2.6938645874328455,26.412608782239385
-31.11550748674339,5.880819229489599,42.154089994008444
-15.749888690202019,4.404712027863969,-2.734465335553032
-9.827209230719015,-3.899026742259508,-2.717306872999026
-17.316028478021686,14.650742363621845,-2.656411994602672
26.529907412685432,39.472092389105896,0.2918235528744419
-8.980171419631535,-0.19602460394591406,-2.6646788224927764
-35.49711046987781,-31.997364260140493,11.040035579412528
20.961569746599107,-8.448874318023329,-2.366034408975776
30.70041040633441,-21.746766391515827,-0.23085040532137477
23.788886201885788,-7.286960600331456,-2.296408119567521
-32.08078699989089,-26.18239324822894,-1.7796660858902604
-20.336715786547288,-5.837649460120452,-2.741488199825371
-30.52186093849809,6.157480865038047,21.64439832779722
-0.3415856265089222,35.75471722446817,-1.9765935705923254
-12.142713710350547,-43.418590846619885,8.108188828769029
-4.1478999425993885,43.32136840145615,-1.8703760511839838
-29.37806871071154,11.011127362297616,9.307306986884955
-30.727158019919585,9.412277142826605,14.481671049352741
-27.633153595033562,12.338926080015762,-0.5571345509109064
23.794935610106496,19.911439951256767,-2.09734678672976
-44.616478430234444,-28.853879003426336,13.656284104023767
10.695666460096792,2.648244791410909,-2.4033969090720966
5.417934652410858,5.945208243448341,-2.3862026257409856
10.072161417507662,-38.640352638142545,-2.6992834654029516
-29.04709640449641,20.04489963975959,10.000170582550975
22.547495986849288,0.7690996874256475,-2.3618853567610048
31.962588637667697,32.579193855675236,7.056526571473722
-27.71719890586607,14.912171280634984,10.61225890269455
-27.846705414449563,15.87511515768483,17.899459292559545
-28.126670369999978,12.147542492665234,16.13531096437599
22.11058957723538,24.26239293299515,-2.2189620185927397
-34.3899398384474,1.7831987297350176,-0.6339641388444924
-32.25556006543348,4.067396417585457,3.8074799253492526
28.372906748123416,11.662176916074912,-1.6957644765895405
-8.140199462978092,-40.34994853680629,6.364301808070646
20.43984064466584,-2.069269611271404,-2.406019009337547
-19.102659977836076,-15.984975680976705,-2.2990408747152027
8.184097666406315,-11.097907248445958,-2.4799103336237858
2.172790552068999,-8.335588525699546,-2.5554517928854277
28.320238605776257,9.270427108601936,2.0143437351565385
-40.835486101539736,-3.9098836603439637,-2.773014575574176
-27.32275300835927,17.88130442779657,19.30061673185974
-1.0647733389006575,-5.633732564352879,-2.583680650099956
-27.629063751097068,14.430396957282257,30.79033144266484
-28.5893423678588,19.215414235759994,25.8766187249482
4.4181475286116045,-1.594400369429331,-2.473683547702976
28.394101209048152,7.030373554952412,-1.617009524413371
25.231527470112983,5.9196800931964075,-2.071688966586471
-3.5958004910663757,19.609105210279743,-2.3347847173399288
-10.045465681754793,-39.64615388533383,8.396523110216336
5.097891354312896,8.223214931950068,-2.3605196648645155
-17.313829243436334,-11.809526033451753,-2.4544552454292856
-28.98536282758094,8.106227211502238,43.297132157196955
8.567844820050462,5.691220652874716,-2.376144445533357
3.43567753549669,20.988731792413045,-2.2265684080194705
-28.473972952335444,11.885097412124066,18.23729603632897
-30.729361822718616,9.001986333689182,37.58479872935818
-46.84017102583219,-26.366685334820552,9.666848002611403
-15.371503901788541,29.825010467305276,-2.2681208188590705
-13.10054971985709,-44.72030033098515,11.369200878717587
-5.373792392138174,8.774434621263728,-2.510325998963613
-35.129744303463156,1.389546608256872,21.962001166034607
18.187406573698787,2.647335764912569,-2.3814180725037892
-11.210477489608596,26.34964808564596,-2.289006581330328
-4.637246931712724,-11.50496164725059,-2.705651435783249
4.7425340307179855,18.717224262661862,-2.2613121050035376
-3.2211944103014667,-13.401642013651474,-2.6538605929187518
-36.6452003537499,-30.664453911594286,7.387801670009863
-30.790340741100135,5.819362836680189,18.00617368037946
-7.553871188432651,15.584358269188145,-2.4604622854988243
28.245074007017113,11.206467299608015,5.850752398990573
-30.338167394945557,6.508861487733608,31.411663112429842
-27.539271805422363,18.509642813165886,-0.6108681830099429
-17.571061882499194,-1.6823800646929445,-2.7291339202349882
-0.3013474943418999,-20.101191353520136,-2.6048502024317712
-29.092244360551135,11.313069673923412,14.066221523995713
-35.90016464195284,-10.7837061157455,-2.5338912546962153
8.333686294760072,-15.693705380013816,-2.524475250937291
42.844221651706775,-19.765182769767684,-1.4480283025255911
-3.9056026227733738,13.002188271700112,-2.44158023898838
-6.88702801921211,-32.10082274669672,-2.2193245189599984
-0.8186879710576989,8.550515608099536,-2.4339067440260505
32.17928094685441,-27.226240427899274,1.8115956269046416
-30.632156683409345,9.383176537180175,10.366022131047803
-2.7636256229436755,-31.10292118188181,-2.4960574703025933
-7.293027146684028,11.908199130152616,-2.511341773878232
-28.804037249694872,19.877168714207684,4.09859867885775
-38.691579871355174,-7.58694562632683,-2.665275665181435
-9.102362575057022,-40.02535678538585,12.177035439034976
25.99943393069319,33.129108931810215,-1.8099299254117873
28.325545858326482,0.9661901471678198,5.0971404502810085
13.23948007937315,-19.931367581209756,-2.505025425226831
-8.13403834911349,-40.319408667544266,1.2623010237800958
-10.509532714474425,-39.438478573019076,3.262592905385408
-30.244509278839104,20.871213587264506,39.073826261603024
-27.718173990321013,15.801840738716646,6.143232360676946
3.7247733806796535,-9.734845267460125,-2.542987538507527
-6.9016801842071684,-14.96050499637448,-2.5473583727488918
-3.503238009069309,-21.401462220380594,-2.539759816266834
-45.82749875625576,-27.298878838158785,0.32730763989506473
-10.473974087982379,30.716805564618657,-2.1937828235805834
-29.340704489158583,20.247513508922918,17.12909039038229
22.419850293431185,-3.6699395067873537,-2.3783871683912152
-29.244481484442037,19.655745088607784,42.40216414460668
-28.147163887098998,15.591881302711274,22.36761281290851
24.028528530164998,-14.491081176700582,-2.243018521472996
-30.3969207991151,21.53178823640005,13.586796635554007
