-42.659872866935174,-21.58198360312242,-6.19464916446733
17.841088912187256,-16.50608298444629,-5.929947438916349
-12.476018077307026,-0.9457908326629383,-5.45449852618931
23.032401345480665,-45.526830679098346,-5.341465264040028
49.95595230233823,-7.306506250233928,6.541774351144284
-45.176042456490116,13.00130600582502,-6.678695142411869
43.03290464377671,-24.262416026865335,6.401049454942688
30.12622158043539,-29.276423411709256,-5.443113353823878
24.59584163631675,0.3518614563978407,-5.050016897158016
-32.90884402588568,-2.088960968372059,-5.930367946992606
11.921356982814807,15.340001982079002,-3.9884803355098213
-17.97486301738747,28.25815171200316,-5.178069232847378
-8.102129293085994,-34.42764028085189,-5.468367604834499
44.56391628076657,2.828792212667709,-5.229544954364129
-31.706835922436987,-34.27127316331661,-6.049574456317562
36.832185508374714,34.35510517597959,-4.02620580898868
-3.5838204833303937,11.728388203345446,-4.644396216901451
19.453382374621246,28.478446076982788,-3.610623267722303
43.579939142456865,16.912494103822482,-4.893931810665013
-8.538540265124471,37.66550411036513,-4.043279107547258
8.559818532997134,36.37245749396695,-2.986920234368485
-19.989837804527664,-29.263780819244637,-5.479406728722342
12.130921267657655,48.85047574825548,-2.782448190237853
9.67521388797036,-45.24795208569694,-5.418940146862121
-29.973564093615792,25.74928667585,-6.109531362738773
6.507727023815366,-12.480822814710438,-5.729359256514311
48.43052673963749,-11.397539482107417,-4.592237677984571
41.206873945665926,-25.275499917343495,-5.0608573008877835
37.47023550896463,-38.24551151115669,-4.94189943946554
-13.268293742201811,17.81441943109825,-4.84504137356123
-40.94215250054434,-10.343974374572625,-6.5290839698971626
18.844353121113922,-28.07882973858432,-5.654138647354784
-2.9508659430503443,-6.693744407088251,-5.637047119818562
-13.60662612197665,-12.080889805203897,-5.397947219263122
52.945653552629274,9.96911470961532,-4.972736264925854
33.54746964805639,6.743932650269496,-4.861461218623847
-28.675112890596196,36.5901526149197,-6.0235112678507186
15.917273111423246,-5.879814823639813,-5.490404443549383
-23.26843055209996,2.532546773888589,-5.710464164007432
15.231971177456408,5.274796599944205,-4.781969660521613
-9.68069893723677,-46.19127501440243,-5.527153952304761
-35.25420340578271,16.58638006434849,-6.5143900171776385
8.80655099698389,-22.692629138404726,-5.938751821387244
-0.4239668603465406,-41.4058573361611,-5.365333283773345
28.28971400961839,-18.819508700622283,-5.681148759655784
-40.8634761472949,3.9408402839027605,-6.347325368130531
9.551772042814022,24.912749000173743,-3.4571321790565004
-9.819260454644773,48.84558597354798,-3.98266404713495
-0.2749895181328087,-26.856289539800276,-5.858226825933354
-11.474858120494979,-24.389708945712467,-5.5336739280067615
-32.70694996627192,-20.804720398983523,-5.993274190282338
25.13143939701704,-9.6356199079607,-5.525686545891271
-15.111184960640665,8.277125403336592,-5.342202883822159
39.72787887143442,-32.46889437726719,2.8362934527940076
35.21454137686362,-2.960388734455023,-5.020601260206848
-22.64499633444231,-6.919586928847299,-5.470038581386653
21.08499095606912,12.696191166828411,-4.426390540676289
46.48593685289365,-15.886600634655636,3.926935538225783
16.659349489496716,-38.64617698918391,-5.452917262948764
3.1156158006493357,18.17500753945572,-3.550485545299349
39.956828389325814,25.41633027620536,-4.37088951228115
-2.5525630418867506,2.5422058344048066,-5.182489780019535
5.223966493556402,8.75597910688957,-4.44489319401907
28.703436369578007,30.271149463715183,-3.850376688666931
27.38860053474874,-37.73060509814573,-5.460225076520281
-31.048076212222284,6.905808175640032,-6.124126810610361
-9.273089235092511,26.777796125144327,-4.381410482767928
-30.9645675543664,-10.722958555505176,-5.8932482188542785
17.457175182055785,37.10507068877725,-3.27792673653158
-28.282638980532482,-42.514806359960524,-5.980156432326835
-41.86455066492437,22.26776521503244,-6.736748136668585
-0.07723514188667435,37.992402655462215,-3.03699024355685
54.61358748816234,4.140185599690056,1.0083128300745225
-22.171479264866832,21.02324013369058,-5.494964098827395
-37.70846543023944,-28.085506677959394,-6.092273978651855
-20.587762960132853,36.17082884087863,-5.3927374277705065
-5.462958477139553,19.585613887445064,-4.174390291316557
18.511878231709787,20.508342758351915,-3.925065323545034
-14.786504748809616,-40.02861340188647,-5.529156169877322
-48.80745392592572,-11.69587905308949,-6.5031368358867345
45.434761019389015,-18.71157318154091,-3.927841838326682
16.47178474808373,-49.52257103745566,-5.4638148645666105
-26.87181585790769,-25.688443260737934,-5.747748417710665
42.63484579831977,-4.640396392013101,-5.0226082426433205
-18.128669598066043,-21.10275313526444,-5.356578477696729
-22.21782277220227,-38.300175894906445,-5.737193153375637
-14.980663742069058,41.60133374708877,-4.6290461089967145
32.66805147586865,23.713698992999888,-4.226108573229423
0.9103402962679701,-34.24538720798795,-5.727935047339484
35.22716943365597,-21.017130184727616,-5.3151074719998705
41.48607689329439,9.94143514364725,-4.9961365000345435
49.55371077193032,-2.3334464194358464,-5.193559843090622
-41.68931267765726,-3.160413002468008,-6.464192853090269
25.425691962871767,23.13882588332814,-4.0261726832872045
36.426033403769196,16.23523098044502,-4.6705261115842625
2.8159102268767393,-18.721032882808096,-6.12558271725126
25.89576300567425,7.223030069255567,-4.834968787618388
-8.355681640415458,6.493549595789829,-5.245513319762921
-4.918411781995462,43.54261193860434,-3.5027835292411713
25.69508255015762,36.642217925005184,-3.5774553674641973
-37.261218668203064,9.739959220229041,-6.439498078943535
40.04421512173638,-31.91587096660503,-4.093318123199107
22.5361324344736,-22.444690461979974,-5.720172205530177
12.111233041341945,42.08327823612293,-2.9602019619917965
-50.24066066417898,8.612408873040023,-6.604753316520917
-14.004436777201647,33.61624695590622,-4.718595950387456
9.264258577491779,-6.328335613472004,-5.56133868167562
6.395112152694937,-50.99665161281576,-5.380689060524891
-5.207595827575929,31.95087411238662,-3.7912577119062214
-9.524480345808893,-6.913808745284216,-5.478350210201369
-0.13120157956840633,-12.813534249936449,-5.774480827656334
5.88231111990185,-39.10740436662744,-5.618514744910767
3.476492506778721,31.941176878905353,-2.9655694645768658
-14.115088139127915,-32.01866642209345,-5.41018744920348
13.263021958811002,-11.971881413285537,-5.781145236610205
-36.95744260709204,-15.39636977075291,-6.190112236479401
5.683974087545728,46.86850488066889,-2.6098513380244612
-11.4040677465007,-18.090249811825345,-5.496279768983531
31.653874625555247,-8.274218048542936,-5.0585312273770136
-15.92669293487016,-6.180827822496072,-5.297053831926013
50.03272966445046,-7.317735628321936,0.31026709475722763
12.807331539811734,-0.44565242984734077,-5.216289951920402
-6.960145563524882,-40.60214936206509,-5.337652353926491
43.559056202711716,-23.169073144335844,0.3027354314514036
-24.817484161564202,31.667723034066366,-5.716031763137693
-35.470389939344564,22.973528068074845,-6.5339771380787965
-10.43447193353654,12.349889988662481,-5.231312169835466
-18.93629186658149,15.092523251173198,-5.281804459845828
15.212574941852356,-22.076932398451344,-5.847974684880105
3.122208025454418,-5.812785391539862,-5.48312657470485
30.660225961347937,1.1917017077114505,-5.130335461736631
13.399615066391862,32.53645764504246,-3.247806875503984
36.03158281417838,-41.59933148030726,0.33769076130851006
54.80296509141124,4.154542071438864,-5.072807074076303
-46.18345339606414,1.039801441393239,-6.562977226060042
-6.455702682797679,-12.137055040405317,-5.595682416938157
-34.55514005725417,29.685165390388185,-6.472043253789042
53.05893045281461,4.677844861276303,6.901634477914117
23.620379552126856,-31.71344836336863,-5.617930006237359
-21.233585809641312,8.141147783562944,-5.548205932651978
12.964875302692734,-29.088528609196462,-5.727487344784871
-17.316121274287678,2.53263810395763,-5.426155724946475
-19.800791378702385,-12.256496008055498,-5.3796151637146
38.67512794013871,3.4097228675740183,-5.030662965714597
-6.626505631121492,-1.7609604725280479,-5.418883442275666
-7.110577504088434,-28.63385939579454,-5.680649735105537
21.765558396375113,-4.841162141372471,-5.440042617982511
9.350692812918865,4.587355345500925,-4.848110165852317
42.91602382727624,-13.49979453220626,-4.709951280402371
-35.7364588301614,-7.183977630447005,-6.094761789765311
47.377339357859434,8.3199969151251,-5.035865806559051
-29.470651298427608,16.61587123397991,-6.084486120516982
-46.484084684820296,-6.409563064852073,-6.666510557276207
5.635825573229799,-28.035227687529066,-5.870747541138769
-25.58826976931376,-31.30897129150862,-5.74466645228466
19.481391215494618,-10.983818600327869,-5.74806751620769
-26.702156559447992,41.97826655839579,-5.826540130560447
10.696772899071597,-17.281004983860555,-6.029207909960541
2.3999484284592256,-46.9061767907969,-5.500537082469981
-27.618310606676104,-4.1541876334086165,-5.733791584673132
-15.711493669719186,47.23674897789821,-4.594780049532968
-16.64746711586185,22.35140157653496,-5.012206760991784
23.76091653874875,17.697282891504454,-4.209165918170086
15.393673199509417,10.88833104167036,-4.355788474840325
-46.10107639240131,-16.601023606132124,-6.348914607412697
19.027710695880536,0.9735503404045268,-5.1469180367906855
17.64937968524308,42.855581428639745,-3.1329984807304236
30.498541254114695,11.407246383658089,-4.626110689089723
24.078609673063166,-15.179121284088696,-5.843578082181074
31.43885868237531,35.70068852482413,-3.80261498349101
-28.751374765792065,1.707717350391825,-5.913029506806348
27.92524328956648,-4.084317388239849,-5.075618041039686
36.20208857983734,-28.134156826571203,-5.369530386794161
22.055463023383492,-39.87999590226828,-5.337165842362288
53.47455624263412,11.434280345592278,0.3355371656944881
29.63445967810109,-13.500765405762781,-5.444928570198019
-0.10643296628048167,7.439883897252773,-4.7759497137001
4.902319424874896,40.423193060430805,-2.7525414171879174
-3.836326033836169,-45.63402781578699,-5.3632173253358415
20.346424316759805,7.3267588701808295,-4.716955369532543
41.4623214511384,-28.322556334292496,-0.3081036721392166
-20.192588631416385,-2.0302526162439567,-5.482380269661562
-32.56993180263866,-26.17599759849056,-5.936418242666755
38.96860160948876,-17.178893059610846,-4.987535903542657
1.9014717256114475,13.000718479622066,-4.073887095683939
11.446097445605592,-37.458425967427836,-5.564650718594507
12.642603753662293,20.611350158288744,-3.7385059772123346
30.846974022033436,-23.97247337946147,-5.550247460922576
32.134532348054584,-39.98394036933197,-5.370278092942089
-44.58236964741561,7.642447190315567,-6.426236397804422
4.286609647681825,23.28631090861708,-3.363888309539727
14.529472693941912,26.525821291801183,-3.5420326995957034
-3.9703242454798997,-23.16096647110403,-5.733143819502174
10.22614391691561,10.267806276766386,-4.299009215817653
-40.31715786001496,15.457960953659699,-6.676014765011628
-15.072183990423504,-45.93747829700565,-5.6620795837012
-33.81431053856918,36.25239836160269,-6.423498742897623
1.1485840798772242,-1.0626382857223868,-5.274586536914853
-27.07252644126874,-36.658595750194216,-5.9048220156104545
18.80972771237244,-34.01115919882958,-5.521716797542505
37.950624651409804,-36.88011631551796,0.9742259792625044
6.796338618408646,14.445557327060207,-3.8949474103619326
14.492838189524713,-43.57285016479985,-5.377842962248015
23.69554154101409,31.275323493409218,-3.6216571817122447
49.599909391001674,3.760105132281734,-5.207547470781143
11.437138214681497,-50.451899629194905,-5.415860388037631
3.5026510312903216,3.880404085067389,-4.916138558305039
-34.107521087270904,2.867324611908295,-6.155668313128856
47.9070590531467,-12.522746657691531,0.30383459747560726
-16.521461412531085,-16.186554333290132,-5.343135180261844
38.1652825263919,-36.188740035668566,6.159567368699165
27.96314145362399,-42.791872349557515,-5.351610258913116
-24.8191580528631,-11.429107614544149,-5.60964133226637
-37.651945307264526,-21.430786902449626,-6.155034944297366
37.1570604867195,21.14910766798225,-4.475978543221587
41.15415622344731,-28.859045694445683,6.5128727182250845
-10.411023216979636,43.44569003133211,-4.12354943726781
-18.636397074992324,-34.02365307726625,-5.511397940457446
-1.6528411968735552,16.43891114558482,-4.0309207978899275
-32.97511709270371,12.180954673309708,-6.3220555309717685
48.066745306634196,-11.936299370188944,6.417279434038028
-26.17850990490018,7.53396711050842,-5.9418450202634325
-4.96427977935419,49.37398362830742,-3.354402072635652
-0.08739695968572084,42.99105824282803,-2.906108480801712
8.121486375121709,29.58109357367028,-3.211461487557301
40.42088073480737,-8.990536055664485,-4.8495177134239045
17.01557565812818,15.485141683969134,-4.137659274167159
-32.0970703285224,-15.746498157124725,-5.977748267039398
-12.503084352306278,3.933008110311011,-5.335147312211377
33.6996393823034,28.47296142943462,-4.072051005107751
-29.615909852513226,30.980206466519387,-6.088976326440592
44.86490323641676,-19.778214844653842,6.353057134966919
-27.873518078051102,-20.760374870400955,-5.811159650904248
-0.3138149885467325,21.936315049724957,-3.6681806979195017
33.53181120431011,-16.281556493239698,-5.295771770402083
-38.735928113278774,26.460180418077385,-6.664634109355414
-3.4442185753556385,-31.644651760513167,-5.724708675484748
-21.98186185993571,-24.96170778289792,-5.561307753655143
-11.920993193393612,22.862637488885582,-4.637080848291388
47.065193441711784,-6.883706829751303,-4.979709377793501
25.91545766893033,13.512788917078593,-4.518836400380996
-16.05378622107311,-25.466088909719566,-5.4140067847759985
51.466290604559305,6.45400609824809,-1.5918323124026696
7.9900454823548674,20.09810974305075,-3.6162716053653967
-44.15199713036786,18.1832875727795,-6.783827622520857
24.35127352413744,-26.757968734034108,-5.593847443855058
30.15731002291391,-33.965978412415694,-5.319525036559512
-41.23384304885025,-17.177906528831667,-6.3461402809174645
-4.8140288324348015,25.56715517664022,-4.022469878112842
-26.45290669445973,22.724807625738283,-5.83096342418719
-22.356585732557406,40.42447653254136,-5.41003403996298
51.963700475779675,7.816081330132212,2.9048410208705384
2.631616547118795,-23.29765443834262,-6.0259956081383255
-9.720421403052624,31.81098948604867,-4.309960347325098
13.958970481867421,-33.50710967059861,-5.612205687122619
-7.085096118943657,15.38581368960215,-4.575881919522862
39.43017805369432,-1.3720387111334567,-5.112150852359523
-25.384161010071974,27.21441609647945,-5.753961713743014
-14.885054313988338,12.787252444166956,-5.301121127820427
-37.759177740211264,34.083363472731925,-6.590927899436582
34.889841849310024,11.131147132125829,-4.745254363017529
-8.224537092336858,-21.45108020853093,-5.60503588709566
-24.32751829536022,-44.41368357743712,-5.930625778188556
45.14632207432591,-19.244104649487735,1.5061279573665307
-0.8401785051052834,31.606025075583013,-3.310024916363891
13.123825447651384,36.91505122084697,-3.1317975295359126
-4.371591867396256,38.7016249702391,-3.5948618664622902
41.90912337917997,-20.988605220746862,-4.906962692733134
-8.593873199376858,2.1340958827734005,-5.23383249528081
-13.806256942704731,27.290038616228664,-4.728619356656542
-3.2056523756334006,-38.13201182255028,-5.436550331912047
3.7750800144457983,-42.81922848669217,-5.5697063834380485
44.87020531751798,12.515516231403847,-4.876802886319642
-20.25047022436295,31.835617288760982,-5.360392829895721
-11.42567869055297,-28.74007973029597,-5.562205026733119
-12.228966407789962,-35.78329771622688,-5.3724360356475165
-23.26104492200902,-20.652740652791998,-5.594308468467366
-4.326674034653873,7.601573141326333,-5.169861831445893
17.65883915971773,32.23896844973868,-3.392793622469847
6.551589639710303,-16.88206813449201,-6.105821836973216
-41.10774144287899,11.28612643102309,-6.590969842138947
21.2932772841599,24.786527855099553,-3.826902048591253
-20.39311422593811,24.74632488799099,-5.361595169120596
2.9017545924635937,-9.93072074358792,-5.611932656707466
4.407298770194282,-31.96306007010842,-5.802751849799537
-30.239332901931046,20.656229068979243,-6.12311921596043
28.759309173299872,25.534474298170316,-4.026315674296585
-35.060626601640145,-31.907164433534014,-6.1424849680394535
-38.87986899833316,19.47151731276172,-6.723047621844108
21.52343252739415,-18.490061197434677,-5.825357017961
9.628817255167315,-26.7392451441953,-5.834613771432622
-24.47876375881326,-1.5538431555340906,-5.666265008139819
23.3773754981405,-35.77429488182401,-5.537304912311184
-2.646000998224636,-2.5294772363047127,-5.40628209906949
-0.9626711768320508,-20.443550221625664,-5.799189256218002
-27.953558071691273,-15.91064528833476,-5.784576366883331
-23.739179579795557,17.08529675148965,-5.631484443736138
-40.01327815731572,-24.76782743804119,-6.097485213610485
-45.06627450816699,-10.216249817329361,-6.565050215843224
21.470419249077857,37.01176493341687,-3.4203620579709137
-7.863726508672165,-16.195318473427825,-5.582166273867461
29.20922068469214,21.202937911633665,-4.2270437707877875
22.48910429776644,3.9493412022999936,-4.980409548135462
-15.69082305200803,37.66424819857168,-4.7784611136748
36.52221001895435,-8.12338177790387,-4.847911012305329
33.01625777727677,18.792239789125762,-4.449117229445794
24.481965160336458,27.12229016535815,-3.8251302010884616
9.898325401455706,-41.30617790953927,-5.503661951326033
-24.509117876858355,36.519552753239815,-5.698787297421106
-7.865053130407959,22.711826005348627,-4.322567331771925
-18.700428029271205,11.156994351803435,-5.312766735228487
-43.263450823047734,-13.802637416207086,-6.451696701502611
49.039743440413105,-9.65101547951887,3.3785655994362016
42.37438277454374,-25.991627264123284,2.747982928163493
-50.6216464329456,-7.61421727017918,-6.632946736317338
33.582584231449964,-31.069679932922497,-5.3580145467038225
46.784017096409194,-15.3499351646858,-2.11613862729946
-28.953860212714723,12.76400095753072,-6.092483873840542
-16.125095416896798,-2.223445222211902,-5.266858495489287
-7.218655022271736,10.205569239911862,-5.088243231090991
4.766237570186802,35.63636938959485,-2.8740162059466625
9.484418535996443,-2.4791956106100352,-5.317453397175597
44.08601855355096,-0.9925785593412938,-5.164380951071828
37.3956231611099,7.041206065387002,-4.930581259513251
29.111909572214763,5.112380752424994,-4.942068895324062
19.251762291354236,-46.21192596450021,-5.240991629399563
4.981736576958121,27.06247508648523,-3.222636253635063
39.24709737501448,13.05404235695624,-4.843950432634125
3.1875423611294154,-14.907139593765528,-6.205013146591672
-43.45560577420975,28.14540749837188,-6.7084843169352695
37.24125855415795,-34.454584423949846,-5.311470443557276
-36.37830691767599,-0.5204182171363925,-6.083164057223171
39.6906247591985,-32.4384472487099,6.641889791043186
43.00411706874535,6.468432260641408,-5.093021002418573
9.651251732725314,-10.095849589939574,-5.685107871211098
-9.528924005786783,18.27501548479824,-4.495496785172162
-20.196937539882803,-17.064474104365825,-5.42825524540466
17.764455260303144,-2.59821097205529,-5.32604527766273
15.12935705230724,-25.83811992679152,-5.765017367674511
-26.484537842914,-7.738776600336199,-5.6646118726822925
18.74778490334839,-23.327251366641573,-5.762232943028353
-17.843371734119476,18.665350588071405,-5.30125127289244
31.706594572604825,-4.240644175126166,-4.9458942403953685
12.70025461516389,-7.790090675140357,-5.642425741672177
-16.908630935245792,-9.900748019199535,-5.293185397795021
0.4370358338804108,-30.549706323514595,-5.882684033380902
-18.38266438159006,-39.07218975656991,-5.595000746766485
-14.523905005305979,-20.18025171794506,-5.423218749168953
37.78901656650205,-23.822142285526752,-5.231589663029056
39.262632230625975,-33.7292145104022,-0.9529145134361491
-9.849593964310845,-10.646225505578823,-5.492689920815777
-48.77154132989799,12.111319673205685,-6.511375112795339
-0.1691360901868519,-16.51833073686136,-5.796574916302505
14.278973223782497,-18.220322669205384,-5.949670867577794
-11.124094302181248,-40.51756775498188,-5.444224529192062
23.8950468297711,10.300525620333898,-4.679655739225414
-2.983072029646379,-10.365373186485623,-5.6804697811414435
-12.871219831476283,-8.410936962237953,-5.395322836937761
-12.391154230423405,-4.634613442873342,-5.384985956569876
-29.146931394901703,-28.556093004848684,-5.797099989063166
6.157786556005805,-8.267633699347204,-5.591782434366354
40.18236350224494,19.104898947189184,-4.65799321597521
18.60351894041814,-41.73962188573364,-5.351831525109205
2.1638206665964024,45.95149157132453,-2.542990828266675
36.26743071816252,0.5188320522221186,-5.153065619919672
-18.061121684960675,6.172400658093402,-5.408304797687062
-7.17123281925245,-24.91810577820228,-5.655765865607743
27.22698274616204,-23.97671580784382,-5.609249328138227
-11.422306737654452,8.876752189854326,-5.276373560419019
-6.291617719967292,-8.519406975606621,-5.577614767061123
-41.5157205774364,-6.766547059006791,-6.503557767926601
-32.139959758314106,-7.285933030704486,-5.926838365116367
5.973979491301398,-20.44484471916276,-6.035383405091844
-34.54563834514079,-11.021333511736001,-6.062952578177417
-11.566147542360941,39.5830100934917,-4.317256568277979
6.257514816650008,-4.052878824352715,-5.458680872716782
31.95204883793206,14.713770865880315,-4.5579778599645095
19.240810581767068,-7.37709983730503,-5.5667092176147595
15.863536131394731,-9.464456254186517,-5.72753328196141
-2.3534196298911385,45.996787228247435,-3.1133503977961623
16.533833563442286,23.57790956245443,-3.7313345244725986
-41.46774139726584,0.4246005096121355,-6.411776154372513
28.129871266959963,-7.723053431394724,-5.246190481052107
44.91598315129427,-10.570434100308113,-4.830745303287185
12.12028210383444,-23.95746856123833,-5.85630024924423
22.35460414708005,21.370159102200535,-4.00714144291159
-38.00864885327058,6.036400721855791,-6.434786548629464
12.94681631713573,8.01395254730475,-4.517043275028478
34.31136647628775,-24.6941928311382,-5.4775116281129606
12.609402107737044,-4.137171556267917,-5.4017723043056405
-3.4908045242693344,-14.057255668566922,-5.68951554014882
-22.40074358126355,-32.79318505534453,-5.642167112534794
-10.69468344632655,-14.115722312762001,-5.491034653634638
8.67434526266092,41.38947716432325,-2.858623730097445
-18.037046948229925,43.296123522372014,-4.910304347421398
24.950720673858505,-19.886117860714926,-5.738110064877907
27.067665735276712,-31.25027299319341,-5.3568987667131225
-21.865649014438425,27.901108446026274,-5.480750228084295
-17.504785753111104,34.600709022993584,-5.0243762776282095
-3.7253102442813777,-27.85352807137773,-5.769217887913271
20.141842120856737,17.44601238967784,-4.119949175061084
9.694151203259919,1.0950153280145023,-5.137870960345564
36.85106373833928,-39.50810829537069,2.986573379740803
3.2451378608779784,-36.80830578531428,-5.713106746730179
-5.789231939679136,4.1665612461520425,-5.22244002620475
5.80058701448245,-46.25571969097186,-5.459602606616336
-46.5380898505463,-2.954107204856969,-6.625004934122216
-0.4598595602605811,-44.911244551651585,-5.2599934252071945
36.34621009015009,-40.93649554145076,-3.0261904445511547
11.737145642034976,29.523541725104774,-3.326133394527572
15.680101970517743,1.7711661023786665,-5.105772755692329
-7.197818340159051,40.98721256951483,-3.8409955147250407
38.20043069776901,-4.6327541015450935,-4.985983939932319
-34.95220765038999,-18.22471399885234,-6.094559865466447
50.07870479527536,-7.324459903713474,-3.421228146378627
43.978856127010374,-22.02515287562444,3.93174966610975
-15.321086309383661,-28.804434924069998,-5.455083468109089
0.2995873368348367,-7.707814281943296,-5.647788431340418
9.79702703818963,32.53441926470117,-3.1361099759962854
-19.304595432457454,-7.4917235510785805,-5.322155242340169
-6.212461290491763,-5.119605973600501,-5.595982218919584
-45.534094536098536,4.39127090882043,-6.499072771043275
42.35811460782745,-16.839556883221995,-4.7720812373441985
-37.5189327196187,2.6908866075157762,-6.2893708075229195
34.3960320462138,-36.87606329797894,-5.279287137741756
-3.5999881071196405,28.7074463943054,-3.7488232479310857
21.5252511520899,-1.27851433760659,-5.260899519285706
-5.337226634265071,35.48351590522828,-3.7565806866733005
25.822931387369227,3.560653250869344,-5.019025807639188
-30.258646309471803,-23.119508134216883,-5.887674366269628
18.056686791842022,-19.84127278343114,-5.851661644515975
-36.40766720541401,13.448933107449667,-6.489505667004317
-33.77273150456616,8.828080223015489,-6.277899326971834
-19.22614192301538,39.18984546859141,-5.1122315283432345
-11.348563911001934,35.57132031153256,-4.372760281510042
12.318544630978622,3.1122621116019245,-4.990872167733508
0.16775046965707,-4.315901598131593,-5.465021203970122
14.818129890884924,18.13097984076802,-3.9152135764488385
-15.446944320018122,-35.03984902880452,-5.440396359180711
20.787248519870918,-14.960765952974738,-5.916492799170424
-7.569754500904311,46.44374892524035,-3.7615446837580144
8.816522459066743,47.894326749733516,-2.6920598676132794
38.469833915558205,-20.462114507075388,-5.103017840607192
18.409732152563944,4.411580267697337,-4.865590790351048
-39.971945177776966,-13.84219271823116,-6.540250691283989
-6.4019539067668125,-37.345927087186126,-5.383153875745985
10.457083591201659,-13.686155950111003,-5.807453498813704
-26.649530047301063,4.232385187793997,-5.885672128857509
42.65891723708344,-25.45103769406815,-2.134897876323851
41.26748062459267,-28.938513587146307,-4.652159669614292
17.136716832824014,-13.317659223002202,-5.862946755612803
0.6939083580932847,2.205943768909396,-5.131710407755441
26.23124038100427,-12.736723929072303,-5.61449468810114
44.280027479861324,-21.500412385803337,-2.721071131265583
-15.273121971346145,30.189506838683545,-4.8066828308687395
25.27767173719986,-5.948794717623645,-5.331249616999815
-9.949484637978557,-31.629542121840284,-5.544015846441524
13.335362967150024,-40.09289035468796,-5.474750424175954
2.617413029542603,-51.156448547972005,-5.362608491745065
-35.39339969591875,-23.75333047125225,-6.05580060874332
37.099195104000316,26.93026078487424,-4.231300227973695
39.25871473365519,-13.957031141072026,-4.879641152334265
40.95186356957561,-29.473417110345768,2.7891445192183935
-0.41385045744927185,10.647587779302134,-4.4905014876603815
6.276754177315927,5.712203319124995,-4.739201825746143
16.912880325718188,8.041310698677488,-4.568987985557485
-9.274079719316177,-3.5990830106164347,-5.555100777882853
6.288464363530198,-24.89016867624719,-5.930596995999147
-21.522508786436546,13.201490842763093,-5.5072746313280945
35.17939245002916,3.5370924879052916,-5.023159197965876
-26.547830719473744,18.616468666297084,-5.831383157807062
-24.09649627416515,-27.363000569286545,-5.637271452002963
51.510331989833084,6.459529001993305,-4.791621643439693
28.037765803061706,-0.6312587550664633,-5.043700116562035
-41.43697303380355,7.103253609933033,-6.500134302540607
-20.45121903875059,4.024797392299539,-5.630715382710693
6.7883946450169095,-36.05294968739083,-5.6721955623419795
27.25339714908505,-15.809617936489454,-5.666344793026092
29.789270081678467,8.30903470556134,-4.78161078884173
10.546827462220264,18.181140027890592,-3.7801015251331616
27.559610139753204,-27.44778504644308,-5.526006949907716
-23.425043372334372,23.909718040913237,-5.596681220423425
-10.966560498518833,15.504272214977613,-4.880959870211167
16.0209389083197,-29.827057930094007,-5.66104071689817
19.859751949101277,-36.973986059926155,-5.4381562423260394
6.8706002063258715,-42.15413206731902,-5.5340811918650825
-30.448985494426736,9.990376675152644,-6.1701872886691955
10.963042554680252,-20.410495741839725,-5.954706117959675
10.085266635763931,-30.321446099482614,-5.746858699504515
-36.24895732919341,-4.094547636791809,-6.099457532785435
26.77311945337659,18.93729871021552,-4.249144069568213
51.90948127447703,7.8079259893239925,6.801691542363241
49.099134700909474,-9.662703672282257,-1.5357178073356785
4.879411175044724,11.848008636291283,-4.145957853427093
25.08786407028248,-2.730574761915567,-5.180929207453997
16.37573323609809,29.044731820633082,-3.4907096319563213
13.495811465992563,-15.20024301118497,-6.030158303668458
21.946807931818167,-28.72382470144148,-5.58903146777459
50.19090962055285,0.7180175746026946,-5.255057738973257
32.28466957575626,-27.053249052133843,-5.457714005756634
2.4398299229414673,29.022368168736026,-3.0490888794206947
32.073449602664844,4.022093624697983,-4.997802862541364
-5.342682045495319,1.0514391696578693,-5.248295845810307
47.640016289148896,-13.079561857283052,3.339528799352155
6.927736991017966,2.688514791873088,-5.031546916471319
-30.267916667401916,-18.225630593422327,-5.907526018781873
32.73782673960822,-1.1391672019323793,-5.06474769857494
-27.823861981042715,-10.797878816712522,-5.746517875815387
46.29222409759282,-16.457543699608337,0.9044878389362248
33.8619641829988,-10.651722087936593,-5.043192438485056
-24.494891456294493,10.087825791859293,-5.77820479972054
8.76949039379111,7.595761953809461,-4.55724618702236
-0.8301602515983022,-23.857465731837696,-5.824171166218439
-18.96588202026879,-26.35216032341499,-5.4286516033187855
2.5233223727716334,-39.75163904440135,-5.658908770307272
38.244575312591145,-36.263926326363105,-2.2651103137172988
-33.00501904098158,18.608585908288525,-6.335209220100702
53.158935875764875,4.686661658936099,3.6073673720784245
-20.582757676535206,0.9692263496366198,-5.566439937441301
6.77935144368375,32.34754938509287,-3.050531928471662
-3.5757788613696313,21.938964550276143,-3.997653518487046
3.462032846180758,0.8746774865915122,-5.27376447395705
-25.558307093372203,-22.69240654036107,-5.7147347457389905
2.907487954855001,6.820914250255912,-4.631837602760805
-11.221315125636968,-21.096652989999054,-5.520103047988962
2.7240748167909916,-27.093240386225673,-5.939399226387305
1.8971694596421005,40.28881310725497,-2.726454351026781
-44.43361243482263,-19.15416054839603,-6.2695156721150145
52.60351319524684,9.237772180564473,-1.6390660137323643
-31.25208224513958,3.790093712515414,-6.061407244425405
18.515703676474182,11.149111420282516,-4.437183935037365
20.624941266942088,31.844247302666055,-3.501848516855565
-22.952012237098394,5.699618051160919,-5.769815152902828
-14.70163744119562,1.054412703972776,-5.376085997443243
-18.37857929102258,-4.404115012466065,-5.355086791023784
25.99902699245191,-34.02733992384133,-5.548674382714473
-34.1076378400759,5.846836384891431,-6.223526631859241
9.651126536823112,13.409765679662451,-4.030894035263966
2.4749877603518002,9.966623877663666,-4.327708092288388
3.8913408390758697,-2.193979958395482,-5.3757232548504215
-4.156691238090018,14.902428780894686,-4.383855259721922
33.871436152501786,-6.235149292729935,-4.892991790234955
5.06348450703107,20.390341479823146,-3.5128627861960537
22.832163062404966,-7.802907303893238,-5.574009417916417
-13.311736170079833,45.55696572712155,-4.3807227425496915
-16.02674928097666,16.358349921909856,-5.290383990637528
3.964855001840265,15.167961782063255,-3.824957681648867
-6.7305811678640435,-46.01824459919792,-5.4467012318626375
-2.2693080645101373,5.447246578298,-5.153758100622367
-6.77191479421555,28.259519255345104,-4.128514346493263
29.80195287761223,-10.595017875636609,-5.28849132781538
37.16199501473348,-38.87391216402246,-0.9900656722023009
-13.955167024428643,20.793749529847258,-4.82171675882724
-12.230603842927556,30.40410740204962,-4.655925964096863
8.697595225506856,-38.36713285228552,-5.589149681488231
-9.369145613057153,-0.7102628399386192,-5.399206421551125
22.361988432520718,-10.857987233283108,-5.74265089339146
14.12071919265013,-36.38612254855593,-5.545025267975313
32.915667468339464,-19.09428479511415,-5.406219298414735
-29.334223540183736,-6.649889726952938,-5.791360394606936
-13.5565962798732,-16.17810232790176,-5.42492049523915
18.65716976095369,-30.984588252212426,-5.592055037095813
35.863603474467084,-17.960934384347976,-5.197114336531273
51.92833679494465,5.221105800724606,0.9608128358836695
12.91293543558744,12.651176903265384,-4.176117226167762
-20.7152006162917,-22.390638431741426,-5.485859923932261
-2.598050804685865,40.92888761313888,-3.2783014534932184
1.133361371703872,15.802415803477171,-3.8653128950802667
24.98132185988401,-39.2729548147391,-5.451045648953761
-14.991344016825948,5.329635896357907,-5.364635349203673
-1.035928079058998,13.665027186551235,-4.249133143826484
40.51069981165037,-30.692663193229674,-1.5597735551116465
-2.6346062816136375,19.106959439600168,-3.9597533010758106
-33.005968137893255,24.37504565700814,-6.3439026532234655
18.463577180147563,25.654232451462832,-3.701685409859977
-28.399535921781897,-1.1038332039322052,-5.8347970189682865
-22.302788732269164,-3.916622080644207,-5.524611181490697
-17.12786646031966,-13.422832899703673,-5.309133832465828
-1.2558743522239024,-36.09180187077135,-5.583628745925713
-19.531608239079542,21.99832091470588,-5.29062187007603
29.28326324899383,-21.62581251058473,-5.628381226213917
14.956377241615655,-2.3753195417749637,-5.313957101706374
-29.712379861426598,-13.242928338693845,-5.850322714018592
2.10656739452299,25.0581296348696,-3.258292407944198
-4.303203919562352,-35.48304950024977,-5.526327268385329
7.307837978276555,23.231712753359638,-3.4599882469199503
-15.364895828564482,24.82251833288585,-4.881158562065107
53.132249121730055,10.680993630619405,2.9958841982944433
-2.1433374617354444,24.31102285168663,-3.7733730393344294
11.072481488576992,-34.70595828357226,-5.632453098338702
-1.4187913063538793,-0.00288427528123371,-5.252020568220791
12.643568995678265,24.490804581755015,-3.571261078590388
1.6887201123060593,35.86212536227337,-2.8698733590115046
-30.965098546428365,-0.0629492638687996,-5.962074674207718
-39.657209150634934,-19.455425819728706,-6.275613845684232
-25.990098258177078,-13.960001599600233,-5.680351603799005
-27.230349270261488,10.440360831874912,-5.987176946994274
-21.00035190612542,-9.670565027515787,-5.340994252838068
38.7092768687017,-34.94097149995809,3.525004871922292
-5.798551545605481,-20.148407451763312,-5.66386264219832
20.939691687674465,43.12522507532382,-3.2406487746722568
7.655276758367223,11.206811348753183,-4.208094019763771
0.43463141403699834,19.304435304251644,-3.7178442740818345
34.102554047258025,35.092438896602445,-3.911558654612796
-25.329742220602505,-18.86575431195436,-5.680086985934985
-31.536057627476584,14.837068689934558,-6.2679200387154275
46.91503903519124,-14.757736876895441,6.372549050914336
47.271339285073786,-14.234727392530191,-4.556654830826183
-25.131501002186088,-5.373782377186374,-5.60562338057518
0.9049775609599888,4.916143661747402,-4.93777464449732
54.718434271548055,4.148133899054962,-2.358430915726815
-21.065631521910557,18.550886266852448,-5.404537738590898
-11.295639835623815,1.5107516249836734,-5.304689028214918
-3.4317655728075245,-40.82168309614704,-5.308017080675944
-0.3957508421791665,-38.65019756153185,-5.491347542429843
6.37675956062646,17.93672178455238,-3.6653173369648266
-6.226534112099291,12.69193323523606,-4.766642391928902
43.38060530670528,-23.761651460920575,-4.565327245284867
-23.146546047915137,-13.937543254745314,-5.546939185784655
27.819082007118787,11.190730476108218,-4.6361487366817595
33.90095270120765,-13.477394513256048,-5.1829804121393135
21.830230928427238,-25.837527007636318,-5.655637757419798
-8.562125612086161,-18.79404304750738,-5.579120964888211
-33.437359549649955,-13.45078455346235,-6.026205626343411
-26.914159039199934,14.742184022831134,-5.908554456219464
-7.549042538096534,33.30059751657694,-3.9989071407451378
-13.637364359601715,-22.857818393934892,-5.4644144329748885
-37.03864206300965,28.78427751884786,-6.664304541489285
28.842957340135413,36.18869087683577,-3.699206583789295
39.04421616821739,-11.236615129567372,-4.7582038532635575
-0.48937042717510193,34.20800235273941,-3.1577087742609624
-45.46196386079012,10.111789199580324,-6.616648615195123
31.01491953666907,-16.98836848652536,-5.467543474279567
-13.489747518745101,10.483446870924425,-5.297178751149417
51.096609930593246,5.771683349106667,5.383356728501316
28.22795402896017,2.1399247724706876,-5.091193146730212
8.405852650646402,-19.49980516866481,-6.0168679474297795
-5.659500717668963,-33.01481145131919,-5.60067709353174
-17.518587274813555,-30.199402566803432,-5.397965464783817
-10.936224656267859,6.165961479246922,-5.290803114901035
11.483309445715221,26.939636639795978,-3.4296702797578402
-21.41867711082119,15.817782720622409,-5.466359376650609
-18.027232083555262,-23.793822737837598,-5.368656682547977
-28.63291241518745,6.00084333461832,-6.006016179430447
8.524374197760965,16.511855373310997,-3.814951080437288
11.663503408072293,5.721996837749496,-4.7385451500568765
-2.9199943332627183,33.120332299546945,-3.480839357116981
22.14554051042127,1.4057366984201545,-5.126178042196453
-13.584847201512632,15.300523370020372,-5.258855021143416
8.1321370682578,-14.704274973278402,-6.128839487340901
45.628786300427656,-18.13981924201233,-0.903966543785539
-30.42386372843816,-2.6822650473289973,-5.880574004250178
13.956323314490986,-50.035738120618525,-5.438228560779493
33.404845846480576,1.7091545885256023,-5.171569816385958
15.503919313294938,13.428839666468603,-4.210907222695418
40.15586147486442,1.0674575997609617,-5.20492526341897
-20.48964228374219,-19.587325844369296,-5.457753969391976
15.128937781662737,42.55508543258113,-3.05301344927192
42.11458698521016,-26.548975723999284,5.211962390817405
-18.3656283138855,-0.2627337101017712,-5.4488772746187975
-17.93247524449765,8.70721259218416,-5.385190097068995
36.33018492047505,-14.96200042844474,-5.090961001787655
-33.848779958916396,0.34658770253767823,-6.087817046586856
48.83357784410663,-10.234468846974032,0.9185504898850045
3.9763758523623416,-12.46368617497932,-5.703340658601809
8.916127442601894,-50.771941373937594,-5.396687255195519
-32.075066709274196,30.413930513051238,-6.279808459333575
49.99447093348337,-7.31213994564442,3.415473539504927
-30.464169845774933,-41.25118095883123,-6.0056851576509525
-2.3474519849464004,36.9810314316498,-3.420205096687422
48.52726193539671,6.085444293406826,-5.120142189245156
48.16810528385724,-11.961469849791246,-2.1330388860817084
-10.065859635421084,21.171011265284534,-4.513578853051039
16.349947784768922,-32.31800684800631,-5.599829113439347
30.07515788934348,-41.43161327821422,-5.359808380586353
21.23845313307717,-32.50111139622742,-5.5159187159071035
-17.829782166880587,25.207337914782517,-5.162498243761764
-47.653815774213506,-13.924435329683657,-6.43281247440735
0.4027601908147903,-10.362256241397521,-5.790818350553918
25.062606249149056,-29.663257707498598,-5.517105932039891
25.801151594586713,-44.06355450832556,-5.345682746819925
3.4497497253584246,-34.310694407268564,-5.765756255847673
48.1912973853669,-4.64752938260157,-5.068586425035819
25.86420359247653,16.009688805857106,-4.321534875387398
-23.68989625045723,-9.193570219231775,-5.542731877105863
-7.355093333751095,30.69315075664308,-4.089575325889418
32.195500598228996,8.980197604711925,-4.748634954342865
2.3615962431387993,21.697778197873735,-3.3745644976296143
44.48222415016166,-20.92797466928729,-0.30164219728347746
53.513008394460336,11.442502436896362,-2.3518660346205373
45.34704363576063,-18.67544819251862,3.920258657483779
-21.399496326915415,10.717131357407046,-5.528838921284682
24.563928365498697,20.24280369965045,-4.124304082506513
-24.3986349308227,19.940573799121168,-5.666996029575573
12.291519082511979,-31.672658704025817,-5.680550646237283
49.002368362724546,-9.643660068825117,6.4711371760714425
-2.1249854439948113,8.867664301268821,-4.802353736076848
7.451005636096063,27.138984757085097,-3.295956308232273
22.8789280263586,6.381553038252303,-4.876312561751431
31.70868333763339,-12.157394393398217,-5.250559547776619
32.273110971620284,-21.469432052938217,-5.506939077165431
52.56663280423979,9.231295566563642,0.9825527444448128
-18.13246523799804,-18.658790996341114,-5.341469616082963
29.67547110278896,-5.840129064358306,-5.056984361543187
42.39988825064246,-26.007271830121542,0.30520841723266706
-5.7470099647709825,-14.989241379723795,-5.633059750813799
-26.58554659854109,0.5985626374953159,-5.800334596761734
-9.361625858532117,29.34339487023004,-4.375857225755515
-17.47618729374956,-45.5810571669529,-5.717075317128755
-32.6938450167426,-4.508064704041435,-5.935422616978457
10.285253257627922,21.182444723051805,-3.640735157957933
37.37926359253672,-38.15265734491844,4.929901274610273
28.95463130292254,13.33347393959544,-4.528807159358991
46.3543081551072,-16.479615464564752,-4.540822131039226
19.068669012140788,14.202466867050035,-4.276067942249523
46.15636492454544,10.463366672200092,-4.954747596976542
24.886644753124465,-23.024436766239226,-5.668803316721906
5.419171578518171,29.43876970760786,-3.1337480366883463
16.812425104984847,-0.3785248302581212,-5.214178366147245
22.16780287102797,27.81350594732383,-3.723520066584049
5.158476185924306,-22.755248549655903,-5.99690349972353
29.747838328502983,-2.500818185295165,-4.99145626637874
46.00231070489784,-16.99317882597777,6.354303545538559
-12.668397919910104,-46.14242356489023,-5.603872561449501
43.95243387885865,-22.011920288283406,6.369293715838839
31.46113692230378,29.345276502147367,-3.9709743305434073
26.33562345197309,30.656091852959598,-3.7302764618949076
20.15525453769836,22.328953511205547,-3.897556341792405
23.51726498463304,13.385589782976522,-4.524473825052337
-9.507266685241866,-36.37102937350787,-5.3408747345940055
18.573572245497257,-4.855070303953785,-5.439735557806145
39.03301386522112,-34.3733820708414,-3.515805958850433
7.751074426583276,-29.167343126821795,-5.810836715154228
21.499626482628887,10.222101328857606,-4.583638364012068
-27.192571929063405,31.394480206794693,-5.900722756220496
-17.445051160744697,13.217127380046225,-5.33979896954357
16.288189736894445,-35.3710166278043,-5.532396930284427
-22.33679348855257,-11.6468086094057,-5.494659274153342
-2.009084417423094,-33.825234022592205,-5.665629149751245
29.245938671199013,-25.754655467720294,-5.53643283188935
5.934489838489325,-33.79332250505402,-5.736790560152062
-0.7738254856195903,29.109942177767547,-3.4103745703086203
36.20433242772005,9.146971128981704,-4.838481435685012
14.913491169762896,21.832350072536972,-3.7563221553723074
-4.408692759488218,17.449905109076578,-4.157800461959872
43.52437351562795,14.476714290588525,-4.802034991393597
6.717170230952862,-31.414106218315784,-5.7773488981656795
18.65334225414215,-25.696891283607517,-5.710653684037364
-35.82025563898209,-29.518991937366795,-6.014250830326483
14.303011095443152,15.459833378170936,-4.05519073426913
-44.68873316689044,15.887479880502873,-6.73824740436444
5.68296246308985,-14.643798647908849,-6.170178396995087
24.440713173682216,-17.590196661463523,-5.797904496604916
-9.446937109326356,-25.573845868585156,-5.5970463501361465
35.15234327063694,22.36022233405619,-4.36155311578974
-43.10570100796983,20.280348746756317,-6.767985177694241
36.00159714042282,-41.56471229666907,3.7171067474584265
-3.930869103474913,-4.575744505074913,-5.535195171708986
-8.432865220291863,-13.37703719897171,-5.548852779554595
-40.52941247943811,24.18053883083367,-6.704970936275744
3.441340089527837,-21.114123987151906,-6.061725703960883
-29.684093533427628,-35.42425346159906,-5.988459748896572
-11.759467151265486,-33.07734729865053,-5.427756303458942
-9.346903414289608,4.39752646428353,-5.27922596646498
-20.05730964254494,-14.559576772555513,-5.4060432484196035
5.312241273152074,-10.500403555045168,-5.654315901541895
13.271826483170017,-20.309817681077657,-5.9192717644409
-37.37520931288518,21.681252296757243,-6.680598686140688
11.9932049304805,-10.049821298503044,-5.707210747751553
-10.694145162419115,24.80816114431368,-4.516971983889048
-4.433231092319909,-1.0623486885601976,-5.350883159160608
40.24106516219372,-31.273014418620487,0.9382423301383005
20.25622801212187,3.046825459596397,-4.997625620237668
33.46745260448231,12.988042341982847,-4.651554560102609
-24.933180990309168,-37.4798604356009,-5.8327735571623105
-12.980341107365643,24.89430439271132,-4.694238345734223
29.258909517747238,-36.4058975795274,-5.469936484148762
-13.360685882268776,-27.516287939076733,-5.5011495761749645
-3.583613314889466,-20.905080466929107,-5.729727175999671
-4.952453145288136,9.789230936440843,-4.943730850898934
-14.604653310323739,-4.0736335897268745,-5.32038350063089
40.44844174219896,-30.64549377957805,4.683896860589619
-6.150928464454596,-22.40368105884519,-5.668223169907459
-6.472504465145454,-30.883434731296312,-5.674866740051424
37.22755688339943,-26.10554713738719,-5.324987747325058
11.84031563488088,-44.555184203627405,-5.399124515033254
-4.754384812152155,-25.82742353851942,-5.728157103732507
-11.718951311455047,19.462055916598946,-4.663971910808634
41.72527814611071,-27.7574115750917,-2.77031048764425
4.286756915543558,-16.967274764367183,-6.14088550813736
-2.5604367839355278,-16.121981809332944,-5.728092996404733
-22.50077453534062,31.81108000916741,-5.535708130334652
-11.779435603369029,32.71151668079648,-4.504940932779706
49.373932846351046,-9.088892513448458,-4.633765754674212
-31.57798236059703,36.45754233091483,-6.249525039106284
23.227405569157447,-13.095861917959706,-5.816161725765186
-15.35957167282904,18.63829852297735,-4.9583099198544724
-15.001775048077521,-17.902742459645747,-5.395802322436265
-22.05937378184169,-28.385261679914404,-5.55819065069883
16.56940613215855,-42.69587362061022,-5.363602130133395
2.676111552112779,-30.354067083957098,-5.867083136134846
-15.106358986174563,-14.441109887945592,-5.371293217106893
-16.46558301025798,10.953598987144675,-5.342384035511318
15.696521520698264,-15.632831759674957,-5.984533844885248
-2.0093381910817216,-18.46131595156239,-5.757916899820613
7.027016126592772,-6.188154237112458,-5.534364701827009
8.952415985719078,-35.43426996847759,-5.65073670792271
31.89923179231535,-32.55924122543,-5.338203509551596
-8.803025645292431,13.839172736320707,-4.86570556609272
-8.911582014632064,8.660204786450052,-5.2367419888213576
13.227259471735936,10.365990067791582,-4.3192341741504325
1.1092060264903867,-21.679054999268445,-5.864095843146751
31.497201756986716,-14.818787799333847,-5.381922220089068
-15.836272346204073,-23.183239777374034,-5.405751436508161
-23.17491206889047,0.23729480176887874,-5.654418085710783
-23.437449946831318,8.009764509604862,-5.721777931355652
-20.349848860936255,-5.407869767397117,-5.4118091353966955
16.813337954981005,19.09254236795436,-3.933407952263638
26.74701863167478,9.262431059862488,-4.732731844873648
-28.67857194844237,-8.763254745624398,-5.7738501396784
0.49959172773915356,-18.79375463491385,-5.82924649599204
2.3049596103861,-3.7237416266112007,-5.403579960132469
43.05890316861237,-24.27707427573022,3.951364250438927
-7.654609550913377,19.724318384990777,-4.343621920511886
-6.573484834368654,7.7801555329,-5.205453446498645
5.899809065095525,25.069521464209252,-3.337055595231825
47.200770311803005,-14.213477093467953,1.5128072268884656
41.695754520258944,-6.621973952719318,-4.9443395274393165
23.34776682548276,24.025475615696674,-3.923466009118124
