24.409143241708716,-2.9183954390631426,-1.9650807961617383
21.802793315239228,-25.71682601431074,-2.2790767687906506
-29.564309692875486,25.311057454827605,-0.23880773713789666
-21.919791843325847,4.275371843388448,-2.061313397470329
-29.407442934617304,4.619483127695679,-2.012256336392787
-32.61695254731922,-9.590485224978455,-2.298170324760488
-10.376232932251572,-27.200430143587763,-2.6870600059629095
-21.393105901333293,-5.723808950996484,-2.3184362695808396
-0.9543052837680256,-11.586061562437209,-2.090739140104964
-32.07457382618806,24.83972122942339,11.49521797064485
-49.98205972681885,4.116855709238836,-1.5391061151718501
-19.93835875880514,20.282256564490094,-0.5236002080095593
37.95585170346657,-14.479137143719436,-1.7459248328568622
-8.432490911626774,-7.512446132814598,-2.174471089987991
8.191140538613102,27.36884783625319,2.990836100573845
-11.818312788991465,2.456035663790945,-2.1708633230875556
24.27522246690312,29.069026789100118,9.733807048033963
3.517203360528704,26.639878233309418,14.151585833483145
3.6985191527054497,-2.864268289665532,-2.1080234430701705
-3.313758283311104,-0.09368985503656195,-2.1857644272198318
-7.832755897974242,25.479375420187548,7.200961920652719
29.027969661267182,7.386049445297793,-2.024751800638024
4.1739639606745085,-21.96373802485819,-2.3405513725067326
-20.240444756535396,23.288489741379998,18.237360039466413
5.947726601627522,-16.429748931635526,-2.2640403748527436
16.114709757720814,23.67660655559822,-0.5272632039052838
-17.583162654803346,10.744346311711297,-1.1390914671035912
38.036835733864045,15.921482924980909,-1.2654595805902982
-39.098554744006854,8.125309134093254,-1.2255417259070094
25.677878586756144,-21.443312144366754,-2.2614169409210754
4.3423039259931215,-34.15953035112687,-2.752570697510223
18.91689093747623,-32.181752762768554,-2.523413678347016
-0.724937364338196,25.640633076227505,-0.47222880764303576
21.83922259840973,17.174661448690888,-0.8526534053204572
-28.50592617999396,14.655486339731958,-0.9836710231977891
-0.982173086231295,6.455644050605135,-1.937159670389506
-19.137805806103824,-21.27389983253352,-2.641179826323792
-0.5918435976938917,14.59197529034566,-0.9871969488990446
21.984341843680895,1.4327863769976823,-2.0334513128590297
-13.343799476758871,24.742548569842995,13.507392534581724
-22.983626912060238,25.79841793548493,10.713028448548581
-4.228071187326926,-17.149959820363456,-2.2886946776515407
6.696686799714642,1.7917246809794845,-2.14940766893371
-12.401691899586872,-13.123361480318735,-2.3395769236392208
23.693217519349293,29.090375218562485,4.861324804285519
-32.66052236179966,-20.292916687539872,-2.599233186848909
14.086062178706083,-2.7474327335547057,-2.0389272196664634
-1.8791780925081925,-22.814788345943693,-2.396583939167148
-3.923741177147609,25.790033082216073,14.5672896175178
14.365938789725295,5.807166860153451,-2.007757693417877
-28.52522908110619,25.034573929629836,21.193474970892122
11.810011910916575,10.26429349053904,-1.8324896345774186
-24.34438697154232,-33.94610034065607,-3.3391953433986634
4.488938921034596,6.099951392891458,-1.946561026229422
21.69489646128717,-10.162289701373822,-1.9150461221511665
9.554019623468065,-25.41284992016942,-2.505883301782345
-24.610928402569787,29.029076899846807,25.768483187055644
11.845820343646219,1.6537787819054217,-2.1510601555889552
14.355029545920505,-20.222284305182562,-2.2889704496153884
-45.971150149082526,1.5219143683899616,-1.9768256384960379
30.95000317524386,-9.262933799614803,-1.7858830662555687
20.44439789668396,-15.832888293667882,-2.0670281185390196
-29.276741295161028,-2.630967178618447,-2.349714348624359
10.549077967878734,-34.31537014321178,-2.4267789279272147
-16.955563465341882,-12.036108821313281,-2.435171889992293
-33.782653383330086,0.288851383186417,-2.2837177141717735
17.737677036165117,28.242861726030988,14.539263149467105
-27.211070293645108,25.089772896930477,25.728979153259097
-32.170393475621566,24.913927464964587,6.803389001028421
-6.554966981773129,25.761726087368057,-0.4893814755449831
6.718053526402065,10.410951937012552,-1.6054429228046698
33.617638822862794,-0.2874404613296754,-1.8584346485626815
-13.236513454259441,-3.891981831507347,-2.30686541594136
-9.897765375052284,14.312131831471758,-0.9619316424635137
9.488906636144364,24.874378185288506,-0.49012191789799764
29.95505930265188,-19.854470003432784,-1.9866087864666302
39.55940843904791,-4.729784901392202,-1.712288962475411
9.277431330151662,27.29734838059555,13.853069556979692
-4.162278772961157,-8.609173213729672,-2.085793367316639
-16.94404400587914,24.501024461707853,4.232182254269335
-25.763882626004364,-14.305479506085906,-2.3556553299587852
19.26921123918215,13.67847927022536,-1.3062857801712395
42.65993562696031,27.23706957527636,0.31056454608559947
4.396846721464559,14.060548923465092,-0.9958501012838855
29.57017514700134,-28.639118784835496,-2.2756061229676643
-12.151001555718187,-33.06572627417259,-2.8159810127362905
-28.839138228547334,25.310069763036044,4.017033801453977
31.372242299627157,14.511041443905778,-1.4855611823190897
15.473126834645155,-8.441437534174097,-2.0642432070227037
-3.9657198929759105,9.474207700776873,-1.5879828199264212
-35.13812664760917,-29.056642148082705,-3.082176949880586
41.16096412403817,4.208736141401944,-1.7782352018030405
-5.371485918432138,-37.164063266391416,-3.0016389144364997
11.571362954808647,17.932114279053526,-0.6549527540241666
20.7806723659894,8.999648422828392,-1.8102245819346523
14.235617586632284,13.654801433520023,-1.3334200515841073
-4.894742751475366,25.756534676716626,10.298453979887563
19.847678142075516,28.405516193228078,18.796484646320934
16.219621691822507,-16.499378535218373,-2.1355061496523366
-13.235481089123413,19.138456310345205,-0.7141160267757355
18.510975910351533,5.196923415385585,-2.0128513887376274
-28.052376988743926,25.23566188786843,12.722597205932175
2.949521665342339,-38.05466387529673,-3.0510843933602
34.77721193001177,33.35829446287448,0.2956909304091506
29.053530027667392,29.998058879231056,1.7948049992582147
7.02092532313039,-6.010863980451128,-2.015983854657504
2.9374478058660216,-13.624950897811598,-2.1549922520873372
-24.115690877660985,25.76710358727186,5.900872767406403
38.78636138173611,11.923530144033556,-1.743945509952779
12.09550600404955,27.5634699230826,16.808655266504644
-18.404044294206958,2.2004163930159275,-2.17071472044754
12.750925682243524,-30.46229223216572,-2.639769537626531
-5.237720850987671,-4.5521972747850485,-2.245358599438691
-21.25167458980691,9.016372545331317,-1.2761412446978324
-1.0650802308350822,26.25968156306639,6.411998942439379
34.44659231883943,24.4523241306865,-0.2592039863774505
3.1899898607726516,26.680729557401623,9.800905941576643
2.3766514573046407,-7.105332556767758,-2.023982975796881
-5.066900329676239,19.913463907304845,-0.6306020235478468
-20.020880449147707,24.211202011351986,0.9641591590308529
26.26080292121344,29.19194062934926,15.423913156599081
17.811007602930175,-24.44952483063848,-2.418014819806911
-17.957415849118885,-7.776958626665777,-2.291808410509247
5.580416653471124,-25.884001322861998,-2.4439757946466547
-23.923614839014316,20.48185788905401,-0.5797921265836776
-10.10643094052796,6.17562358559897,-1.8312195263981688
25.24723740175118,20.877605393350915,-0.6031290717445172
-7.524561531773498,1.953325211534087,-2.2027868903326504
3.8440082723341207,26.59580026810451,18.679898475432065
-39.77062591866995,4.260703091146047,-1.7190385569189093
-32.01914285617927,19.56557908295108,-0.690807935343479
-17.299770724779794,24.37061385989212,9.266633631155393
41.6879644093544,14.515340728062926,-1.354707362176375
38.797101993535456,19.7101392419524,-0.8011361945925092
43.442528375351365,22.745118823775076,-0.30088893334295685
16.81995045802267,28.30072337564429,5.504597067324896
-42.587290673142554,-8.636032872595923,-2.4021212434855976
30.60991069640905,21.168734175445675,-0.6851536197365713
-9.784232405288224,25.086212992087788,16.820589362366228
24.1278446618277,28.892545219479196,18.658867934208992
19.456527877500445,-1.602569368134169,-2.0438148062620884
-13.733214917874012,-19.65464453536117,-2.510189466095862
-18.793736676942586,16.49393205275074,-0.7673872147366564
-16.797777332578917,24.289523397427217,16.969937487667952
-10.411080804245138,-21.53406892593036,-2.50407030242433
25.141163582709112,-12.537939831540331,-1.8990998483133559
-25.831916909242725,3.410530039453566,-2.082835293240906
0.09099633983494043,-1.7215147152250379,-2.1812684525910817
27.52523616625134,-5.0188762967808325,-1.89132382630207
2.2001543967055954,26.711708214008365,1.8117683189897906
-11.213978423116002,25.046299900790103,10.009311115967414
-29.740416533574123,-12.022017066121302,-2.1684277913739343
13.42472455562082,-11.493384356761707,-2.0697029470026282
9.047507957145125,-11.218661372905151,-2.0475719675123694
-0.0975920686271747,26.22184614991227,14.64279849118623
-28.899282025103535,11.024299258664332,-1.329333208843631
-43.64359318152888,-1.2339348766158156,-2.413560675436447
27.860172761299854,29.48139020151333,9.370488559928454
15.307319751679369,28.058266030796048,9.481849579704273
11.313385079964965,27.60305216608482,9.652399450867259
23.3796811812519,-6.37644754060364,-1.9371538817996323
6.32854216343343,27.096438918651387,6.428056668952815
-7.022307965929407,16.776475899337882,-0.781634217385481
-26.218327923064447,-18.131670485178066,-2.548158284301238
-7.51436960022597,10.053536529144322,-1.4699476449450757
-23.175229543149815,25.379455135546134,18.64248579206791
34.31273174785203,16.9054355148649,-1.1739016551507495
-34.05037136332814,7.952676419965273,-1.5027968209394202
-3.012729724427848,3.4664221129940387,-2.1377866677445
-13.433350409613883,24.908597101185144,3.6669031325871866
46.81958324579602,21.656115822942528,-0.31652845280793446
21.104082777505926,28.678019772359413,11.520910336678488
4.918095339246878,-29.856981035772453,-2.418828238592605
-9.57442212601442,-10.909416123137177,-2.2442019235294217
19.929962982513302,-28.81865216981621,-2.368547642118217
-7.267580100412568,-19.05135574007446,-2.3880031785468545
-28.609283185093094,25.10834226552526,16.594213101814606
-25.686023681323594,-10.018173143354595,-2.203896919601633
-21.467107294709564,0.1835499291523336,-2.247488051351844
-24.72977572339527,-4.69961863996881,-2.3234002702103833
-3.415971221754695,16.845345715807607,-0.7387130326259201
-12.732704146928565,25.062837729246137,-0.5175321199878131
26.83084479289983,10.087118071009401,-1.9376470941923734
-33.04622177164981,24.949516102123184,-0.2540727271071913
25.185398103871236,2.887934645305697,-2.0264277244076507
-26.378726209965407,-25.9314591106894,-2.956874386021645
-19.100461433058438,-40.77649283084225,-3.5994117146386344
-31.862895274429754,24.67578962913409,21.860102075914725
-14.302560933143127,0.1222910012949126,-2.2114386032661795
-14.194853325698121,8.43641791512,-1.5241096801546128
14.435020555130702,28.077105106753972,2.9139411103002835
7.087023929114478,27.300496259858235,-0.17306816644479195
30.844654974468668,-12.641988186131684,-1.8427346071935433
-19.83940513471858,-13.72023256327561,-2.5252960930571065
8.2471182321808,17.60630541038092,-0.5966647094752887
40.187781652729505,-12.027680866293634,-1.8028818888926337
12.850502147748976,24.258335400232113,-0.5053837972088754
16.379402881525127,28.345807388682818,0.200879716345125
-4.585473673301107,25.855099261596497,6.7489261015888955
20.59729710328607,28.721114030589064,5.909491165630858
11.247189166043631,-17.61585858132091,-2.1880544371578003
-7.1908881007886105,25.61329959445927,3.7795873134863447
-0.3768981086811186,-44.080170314400796,-3.523748291235031
-16.882422407062833,21.467612741579202,-0.502785943326357
-1.1355629096811786,11.10567700507019,-1.446490973491014
-3.279663699507656,25.800076087303886,18.07897358936758
-3.384729764498948,-13.72918687791639,-2.186264065796798
27.1740657446383,15.08848826281284,-1.3358400175636493
2.0947755093108142,-10.330068774180551,-2.029448149209585
-27.740111643062473,0.23718591689420387,-2.217531608968765
-0.7451464984393248,26.355418956726805,3.087811499119708
6.507684491951137,-13.20855839978995,-2.091944140205337
-10.89652586567583,25.16066442859712,5.629060755967202
-1.3755473602919635,-19.644103431098877,-2.306225075650832
-20.354358587620702,24.008368600406083,10.184294888339332
21.27284009666009,28.90734154798246,-0.22022754410938492
-28.844336687961075,7.866848068132828,-1.6527401034159503
11.926181325271658,-5.059878618854728,-2.0030324675399314
-9.944330840530156,-4.748687854397376,-2.262388287955401
35.156424935794796,13.217139155297309,-1.6142001510930113
-22.422638085277274,25.799303488874557,13.913363570987123
28.301354381594336,-1.981757703976411,-1.917794815208297
12.05650716478822,-22.35560528521145,-2.344360360768648
11.369222238943621,27.739286900534307,2.396402121700082
2.139001400278959,16.201149323291954,-0.7023337053529394
-19.34012458596951,6.57304421151969,-1.632831920191889
-26.466093551252154,25.632773333834752,-0.2260758590457248
-31.305093082591533,24.86431430541652,14.581687532826976
-23.815531824520143,25.446390013102523,25.518408871965114
-23.350820946035373,11.289426283106929,-1.114704400071608
4.014121311434981,0.2121796251658917,-2.180404080821593
-25.438944026865883,14.286185019459225,-0.8953872976113041
-35.05414141199429,-7.557437201019095,-2.42402829613113
9.320379892881064,27.42371761336585,7.066589429232348
4.9221529111231055,26.99477199945448,3.213579591371001
-6.80805850988818,25.44555870600029,15.569050366384253
6.300763566576033,26.977501407680624,12.89537803920363
25.94812790164309,-38.52296974056108,-2.5675679987320126
3.142723407947904,-19.078978083850558,-2.264518395741189
34.37508759782115,7.411037764318873,-1.9438985145361656
-1.5777889263058125,-27.344044201677644,-2.528042973291614
25.771992525963622,29.365468441608865,2.641100572846114
-20.323694059954338,12.07896782972811,-1.0160923198638352
-14.49943843488576,24.66670365932398,10.436225903304472
-17.117368629524975,-4.805670661092428,-2.303687508218055
-23.571582892993323,7.054668481086825,-1.663219795803184
-22.967682814110216,-8.314521336853323,-2.2545412689622237
-31.198869044296703,2.1846515983028794,-2.114140139258742
1.1853488016392593,-22.42502729667825,-2.3509686278187623
29.16211277382927,28.66765168858617,16.0632333338589
-26.141725186304903,25.318618139028295,19.166091207266014
-11.64577637072818,-1.3353865169730497,-2.256986971540218
24.225526095002564,29.00951651404217,12.743372462632106
-31.541936913699082,25.052429365238265,2.7228740363559085
-3.6409886302646357,26.079967683271455,0.16157866575297192
7.261820744247448,-33.68296480757757,-2.329210087662277
-0.470829466786985,-8.159761763203223,-1.9940971620703702
-14.76790171070925,3.069007727959824,-2.142912480495243
-21.907694835019765,-2.7848705270161025,-2.3119877257450407
18.70724008359936,17.082501603787836,-0.7774577931389792
-7.997728930248664,-16.03710131226913,-2.3220291488968576
1.83007507554855,7.423175396852513,-1.865302935868736
-46.857568615057595,5.019940793741489,-1.446252133996972
29.059093293589914,4.421101770716894,-1.9869360547734864
-13.295907833847862,5.641007622799792,-1.8714211333671178
21.315469762614388,-3.8866044709001115,-1.9998475221852459
6.356114845657405,-1.5670069390107455,-2.118184800928224
25.69584113384759,29.278699003828102,7.0058817043469865
2.050255939965716,19.137677580808546,-0.5906816733998471
-17.65959733956905,13.676237050439251,-0.9599580386113292
14.772975669396672,27.887454865759338,15.643349656553154
28.627312036878003,12.397854077337929,-1.724534580020136
-37.75647190568727,2.1786003134647847,-2.09063105662774
12.533222754184415,-37.46982562496717,-2.6708156283066997
17.256793472653975,28.240806627694713,11.613336770154769
-11.10926732453309,16.937925541495733,-0.870564051638282
23.443808966563658,-23.26995040662405,-2.232881205320604
9.25955370041335,0.37556310684806654,-2.14082506592679
5.9318536603558085,26.88338242498879,15.819488289184722
-25.826463058755376,25.634934809991186,3.3586868503958778
-43.271887307394564,2.496847361363295,-1.8628279695635004
24.688611132469426,17.52550487896729,-0.9291651504322426
-15.956384505363024,17.910553359733044,-0.7361544082453985
18.783238007366027,-9.950148531338542,-1.9619163255969772
-13.015676394892175,-26.099124240524333,-2.6918787628716556
-20.749228302680805,23.873891916950498,15.198339673117657
-7.622801522659304,-27.949523331429255,-2.6739552029412486
-19.97893852204739,24.160481740964755,4.0622245182339
10.16030167467396,27.648564811489695,-0.18074399231964813
22.049953072183946,11.544650402301356,-1.6824656938604166
-2.8315269279177344,-2.923579730962698,-2.207672034227106
-25.11095127381753,25.544066213025555,12.56914906242464
-30.03998780689822,25.086061263975537,9.54850808434865
-7.817467724998775,25.429644124612334,10.075254213363129
-31.462248422528432,6.538361741513393,-1.7763770840922597
-36.64690158437844,9.513287450319126,-1.1619428157691258
-6.902344528211534,-9.878468295579143,-2.1672985315735946
-22.56968126988812,-14.41005407076271,-2.4715629055054884
-12.939326260111693,-15.886818903960565,-2.3995922407842314
6.898996980793292,4.646995214966171,-2.0294155969580268
8.745604403618108,-16.21641138313277,-2.1577449589614375
24.95383866679801,0.09287281764063683,-1.9947391463687594
-19.843074228321317,-10.08090130272563,-2.33009587167878
-11.287038089467739,-7.206430043165365,-2.239076433886784
6.979817780167002,-21.750846759867695,-2.391482357789252
20.8040338451594,-13.065787630676608,-1.9637785853004028
8.332190654425956,-8.47590469414551,-1.9872934021170623
7.267174182487192,7.690059913550679,-1.9028546262376975
4.324735284775151,3.3159524269460814,-2.0638446156040575
13.78401901719622,-14.370331527046483,-2.0846476353414785
-5.583651583060352,-1.7165012543752252,-2.2122491711841104
-15.057779639242586,-14.092727102757719,-2.415329131701846
1.4339483345968698,-4.468539361587424,-2.114802693566279
40.21449302502239,28.54673719528636,0.30260633056968755
38.91529153261693,-17.0769552489444,-1.8264453798845577
-9.557459161230236,25.42199878738865,-0.4999970735711038
-13.665911088715273,11.130465028117253,-1.1914190439607817
-1.0420807243492043,1.5068448423230694,-2.204669399044507
-24.48059182933857,28.167168189146576,22.68039630633417
11.582911174528046,-1.0973058410954484,-2.092443170216003
21.01053147884375,3.992817665556607,-1.9739715823232367
27.281465656569605,29.58806692847354,-0.2469488187180187
31.665470080607427,17.582355107901645,-1.1115444601327111
9.426582286597785,11.573895167333758,-1.5627182801681545
17.04990522393186,-2.893114774642619,-2.025318464225778
21.836822580868084,28.92338588218662,2.4498122085388254
17.543844516397478,-34.53300439464465,-2.6183276749656956
1.8492016003437324,26.40832918642321,16.537143720081357
18.758303134714406,23.03132009009495,-0.546842440070591
11.83852324394106,7.15576092497902,-1.9652824473743677
21.74290349109082,28.798987835480347,8.803901097423957
1.5260311582291635,26.447050519904472,12.330994303641306
1.202576723036305,26.490361871485163,7.866684668399175
9.201303516079467,3.077729470911712,-2.1162950309770068
-29.7720640738861,24.862321120550057,23.573347763561053
14.571506702686657,-5.55863811427943,-2.0207765170746756
16.857090707439617,7.300432205792156,-1.9231702704345872
-14.33402175751917,-11.272469510956265,-2.3628130946865755
-2.662165852461871,26.03568136940085,8.824348556132328
12.169809920535604,15.322241654450934,-1.0816653631918853
11.655330065250997,4.381848258310687,-2.081971274728303
-10.832030645490459,25.011741495513995,14.35460927555485
-10.278756406393052,-14.710707189929904,-2.3253001949326544
5.957698713521085,16.212296079624267,-0.7423275443021851
1.055754591292723,4.784719254681946,-1.9944341896468334
-16.023002750273633,24.429732367316365,14.03793297729479
-37.72817584495336,5.926549688185792,-1.6413613112554455
1.780205774537939,13.483572089160107,-1.0871845060872019
19.974125667911736,-7.6195920231495355,-1.9731921132495547
-24.617976383353888,25.665118548694206,8.676572722118674
4.198757332875265,8.684624729117843,-1.7348394651790133
36.97682462137894,-12.063041417033817,-1.6716149772633386
-3.5614344076797573,6.802238164210284,-1.873288424583715
-19.324440562859206,-3.4272432124784524,-2.298471959426897
-2.974543159204817,25.940702558312292,12.153947755573194
-9.629378223871845,0.4371426168325026,-2.226791180613846
10.429285574765762,27.33950322589629,18.78198280675283
4.334804845707531,-5.375038951274513,-2.0484817749142445
-1.267964265515745,-15.394143036943456,-2.194462557357717
-16.505462942967586,24.50425140172173,6.8251722765310054
-3.807256555472271,-11.202239593115243,-2.1278310358098005
6.092725548887266,-18.986446915610873,-2.335253695164425
-8.030243086655414,12.577331500321181,-1.1928355260656038
-48.27455418399128,0.41276129469552586,-2.074814522879601
9.599348650921765,8.984126753263519,-1.8679026973493191
-23.335973451615768,1.9221063729668908,-2.1611955137416237
-30.961512138716056,9.266378282839623,-1.388978122006627
-26.663383068476136,25.197131261819898,22.91673673581168
-2.8049334522516873,13.01030114722028,-1.228436851329684
-12.435798903508545,14.308528230176933,-1.0479559365647595
1.7591772708529456,25.122697523797672,-0.4636375739052998
25.58012527735852,-18.824349993393263,-2.1469086993795687
-29.438775504591614,25.20358316960985,6.4797409083819915
16.853477295228103,12.922254255961443,-1.4355978011134767
19.883505875632768,28.456791977651932,16.159143238751785
-4.998515751868606,1.9067993955655944,-2.1776247324303064
13.859895366288027,3.166573609719875,-2.1981333078746546
6.871326884258132,13.365202107980856,-1.2012953286118286
14.696160150632664,-0.30604657456184464,-2.088346096551147
-5.850383060048978,25.606762090130573,12.620966518527725
5.157263005291111,-36.94086034603948,-2.5213399275957107
-4.0848839617268675,-19.65624403511597,-2.351197303656119
-8.249101071523652,4.500336108693989,-2.04964885840218
-8.045289628541278,7.602869384169956,-1.7114608460771215
-35.08101621254822,-1.8543228499878381,-2.374711292947975
-23.39292771066569,-36.25196570771917,-3.4488123968005264
-26.95722563232295,25.474815066329743,5.734564983827989
9.505013823256267,-5.8081223622628455,-2.0032998241655897
10.127894827442036,27.56037817641553,4.539795539818184
31.030265548681754,11.665900003534666,-1.8325559797247355
-24.827662672674535,30.785619810976314,24.03616612747581
-0.24912121213312513,8.811279299476912,-1.6972136850275623
36.90607487798147,24.20600153863503,-0.2708186682147749
17.701492994972504,28.18524759369516,17.528364824790433
-17.331970188779106,-22.95660277552545,-2.6549626667530806
7.038036742869945,24.61160076126036,-0.47125791813873374
21.893413888714097,-1.2632800670547315,-2.0241150407200172
-20.71045325206478,-19.38312107418057,-2.6181683280708077
-14.445344741440277,24.574678501794587,15.918114632122057
11.693344267594725,27.56132202746907,14.38568342747382
14.033519905729225,8.249102138175251,-1.9064259061025468
-30.695210548229074,13.022948026550383,-1.023288742896805
-22.56398432254608,25.961935310270395,4.028359811023059
-41.91927456109758,-14.021511896708018,-2.4434722921194494
-6.020061957777816,-7.031668922077988,-2.1383948459218605
-33.511326085675286,-22.572407612417532,-2.73125585187125
-15.280274407169255,-6.3960269924917155,-2.3533866940131287
10.883518434220436,27.51158743465995,12.042822960232344
-26.555170619012433,11.653040294170026,-1.2463370253436163
-3.509817651622493,-6.2498178948763385,-2.1264237208962506
19.628122764852534,2.006988694904374,-2.0655955398954697
23.550634329056166,15.036362721490134,-1.2008646473285236
31.81472722642726,-7.01996137122551,-1.8010068269764086
-26.876106135061093,25.398156428708607,10.477952450030408
4.581271876521638,26.99867007848217,0.8404126542298768
-25.933406839057547,6.732136774454974,-1.8111467922306863
-25.122850230012087,-31.630599391965028,-3.228936950232592
0.5581907546531766,-13.762260385912406,-2.129569930150141
18.99339846240194,10.853199174694629,-1.7486599751458514
-7.612180086634651,-5.2643151542579965,-2.258040782639142
-24.360478044558654,27.343891201608177,20.4499306382724
27.05863901891412,29.34640067962193,11.84177054306727
-14.586718487286248,24.815186043493643,1.5912108002586505
-30.519851742087653,24.857482261767377,19.51130668556582
-5.8935763386274775,25.79581637890104,1.7886729361898066
4.406105513856526,11.137846444000974,-1.4027520640218123
-5.462427695887758,-14.864547433103208,-2.249893984211312
19.917460391787376,28.505386858703453,13.659692602683815
-16.6368551122985,8.043423818249687,-1.4771663408484312
-28.853106278115618,-5.11717854542435,-2.3424118111011136
-19.02011055291418,-0.0707887584941276,-2.227529122704718
14.86094455597674,28.053516762089053,6.924601951237908
14.673729049000748,11.250951618629074,-1.7066752712504416
-17.805976011247406,24.44261786453484,2.0441996147906845
5.254061766671381,26.937526015547025,8.509633530020048
9.653074751816124,27.298412953030105,16.168867983113568
-16.858949498179225,24.377978120823162,11.642708427673677
11.28591204914503,13.182388747801578,-1.3871874245665488
-4.4636504614554156,-22.88509457435242,-2.4410033582739192
-18.32646352552121,4.5181209291143345,-1.9760560167093861
-45.223465791897546,-2.947350717523345,-2.5052348227204413
-41.10734819620052,6.975304252476104,-1.279586568727122
-1.3764071924772998,26.039566429697373,16.737429619251643
17.67167309992803,-7.497498020446987,-2.0096805750087468
3.627918409920854,-16.827604595297753,-2.230488655071292
1.7221152830354556,-0.09936841834203256,-2.2385424195487773
18.988512209138083,28.648561719125006,-0.21089493102674955
4.857586796638518,-7.608173099321714,-1.9689020449850678
-11.960650816768979,7.5117799105553695,-1.6540985685955336
-28.250607698241016,25.41398842193248,1.63314168361722
6.182026882940376,-3.8825667647347437,-2.0685218548744495
-5.594578996807769,7.8812214687082385,-1.738198570334756
-12.105240498644992,-10.784472598179452,-2.303305678737595
-11.274363873128651,12.34668297749257,-1.1302225888538895
27.966506843437298,29.593911993609623,3.7582215844038886
13.380216269785711,27.67536865912464,18.682261654147773
-12.227495827296037,24.817981406102916,16.352850706725288
-31.822411024426916,-18.183947741147254,-2.4775522373297894
8.728644067894637,-13.671198842368709,-2.101672663904257
-22.514539439279922,25.90504443309064,7.486271860478269
5.246010832308278,26.89624894963371,10.764157881123298
26.220573169485924,29.147220575378082,17.66726520703814
16.84802558129985,28.347961701321147,3.0437371806736073
15.744022837937887,28.034868314141498,13.550021348884437
19.893696198609234,-18.342840407133924,-2.163048313720987
27.47189402150414,21.06383111449754,-0.6373078986243933
-18.496052384443427,24.122942695448014,15.535420669490858
31.005963207300564,-17.41255166166635,-1.9657807808179115
-11.583792108584015,25.043656183039044,7.818574492897639
-20.265271248042897,-7.9039480255387575,-2.277241399263828
24.164567109993925,28.93651951594386,16.434991105501783
-9.587863793479043,2.741785807380468,-2.1751431245821586
-15.640610326314611,12.112659780579493,-1.0935640588954938
-34.622306976279894,10.36200661096364,-1.1090990057633128
19.657883691395234,7.116342328146118,-1.9296465560505862
-16.91729779831193,0.5600616584550829,-2.1932140275442285
15.988504194261012,3.6528973778250036,-2.1250485829356887
44.586336292631515,26.20848115908491,0.3173460663738518
4.909975243680626,-42.819418158667816,-2.91346703861387
1.2056455650843616,26.557962328755107,4.110427634923081
3.905813172990776,-11.676975777583047,-2.058744435135715
-15.550451385078066,-3.1533870134155046,-2.254229593269055
-0.8556620359263755,3.7451794110965486,-2.0838292365176803
0.7875308055371926,-19.416667003853092,-2.2758254960089617
11.317251264113064,-10.960912529584112,-2.0414187553969874
-33.45414381638702,5.6766695460778935,-1.8757637507803409
-22.905877044376474,25.711146088068983,16.02854930691678
15.774675655778937,-10.736518306292355,-1.9976813363834562
-8.195956293353237,25.54063658994754,1.4827876244091356
-7.116712646522107,-0.20121074598214014,-2.2074883266228764
-11.149398167221547,24.90206059554335,18.473804500912262
-14.936549625543122,24.711095267173125,5.192910043136997
-19.001879222241318,-5.8414729205912925,-2.328159005911967
-9.497848176313111,25.263438822787858,8.732920935909071
34.00958808142235,2.216508223755219,-1.884021997783782
-2.167393130084478,-9.822706647462963,-2.0650987531141487
23.647815643249952,29.034631096419606,7.68769558723842
29.254174911553054,28.758152857635228,-0.2517135129794257
29.88451684295691,-21.991940943823554,-2.051108200736761
-1.290489383347551,16.649865737544953,-0.7177223309663752
16.91882438134026,-14.484807541014185,-2.055726790856643
-9.97632809490934,-33.3336492405418,-2.781356833315346
-25.397832524892575,-12.128154299474836,-2.2498173763051534
-10.500857297298394,25.086820490533263,12.25531728737968
-20.526884153614084,2.199084292607111,-2.161270273292125
22.225537503161956,28.698979223142754,17.441420294369163
-6.190344424518848,25.641430971969484,8.534985222922861
18.92884949861868,28.558546723436038,4.4394198268928475
17.64287801280815,-0.36741178143734177,-2.066669017668528
20.95845864877425,15.267833175687427,-1.1144158191232647
-8.844397438795852,25.401052070233455,5.178742882430968
29.208254709155636,28.713011259767878,7.886112523145151
-2.9882614704789225,26.060338621168757,5.385218396424902
-8.64093302315024,-13.390833824323677,-2.264145531715213
41.39457429135305,6.297843633612021,-1.7995238045396154
13.390353870203295,-8.182293597706401,-2.0333006756518075
-12.351218910636142,25.069100459849462,1.5448744077498895
-16.01415312470356,-8.891910534537985,-2.373399406839003
-18.26066466180552,24.431092558768466,-0.1871560676907062
-32.11768314155518,24.87310665745475,9.384361419868672
16.7912710886254,28.252468364315597,8.018420747719805
-8.785970402258524,25.233250000316957,14.920370269998125
13.45584612796231,27.83179992783299,10.423387832989839
-11.160679974520415,20.10016153374051,-0.7055705518890975
-11.290049383959305,4.4663166342331015,-2.030068988487784
-5.515483799637611,10.856584263127532,-1.4261243552971425
-24.632272050665893,5.118982693789325,-2.0110895351769624
33.190771893381005,-2.324131453702043,-1.8392624175284207
18.555330883353346,-22.43891648748499,-2.3275220163914323
41.02514330759547,10.438681744064503,-1.8193555681469913
16.84588507158574,15.76623292451235,-0.9916239392552963
-4.873239064161998,25.643380524172635,16.75438000634122
10.08060453776058,16.496946775905055,-0.8308949105523187
40.833428548711176,2.158385582175272,-1.7573847078082898
-28.568217770089,25.072302058277568,18.841225304759703
8.141359687319781,27.202516354357176,11.966110338402476
13.032278343789542,27.821872592843615,8.299563873372048
-18.496794880446018,-15.295486726358451,-2.5127578946290727
-2.354178749328977,26.19670924320018,1.7779769346643393
-26.807522789810267,25.33334456487941,14.48830003888296
-15.578326721949713,10.052494085364982,-1.2532735304618117
22.60011134439798,-8.305094702235023,-1.924696403274247
32.42153500001013,24.85892444031761,-0.2506856129195745
-30.81005801775986,25.093846363753745,4.653642532495761
-2.067733006358634,-17.294294824562645,-2.256821195288551
-24.96299957200798,31.742838483645595,25.92054106305279
0.22658536809869823,26.500322995762577,1.1389697106895684
-5.260286593798206,15.726363862891173,-0.916688915948574
12.768290240919171,-16.236100700185343,-2.1624141673106703
-15.322207352294232,-18.34799481649445,-2.5025646763663847
-18.61787104997947,24.2818211754005,5.891362947669714
8.179273597009912,27.329197128578432,5.130394836228147
-30.00088809438321,25.053409526902257,11.595236805844563
-25.92825223721537,20.079785347381687,-0.6037397715779377
-15.617501399490775,24.460840125069847,18.628026123453676
13.95321342226686,16.297901561912205,-0.9220874511783557
10.483535156613486,-30.10864496264849,-2.548505339523372
-36.01843816979536,7.0252590669951305,-1.5771670138843084
-20.324424325849087,23.97306054649221,12.345621240471441
25.400798812149837,-10.41076967037909,-1.8556617957791175
32.61219924049958,20.821895923230066,-0.7123224428726016
29.22931546772591,-31.230902869948792,-2.3645951165530397
-9.947769829705072,-8.862397335555558,-2.2276248189929815
26.44551822221904,29.39727319730102,5.12354013752005
-29.287035152739197,25.07367285532039,14.600834845783105
11.233464291811204,-24.286262635885205,-2.4697924658634256
3.8501182083775505,26.63807349624283,16.35746260178772
22.288822777532378,28.780697056694777,13.277429772039305
-9.043561582554876,16.768894203668022,-0.8188183546613582
3.194711185497747,26.720218205842787,7.62521567968766
39.774087037716725,-2.2950194791662386,-1.7122498325847333
3.5220649980929197,26.676701077896293,12.125674891572912
12.633010679476566,27.85431384964864,3.9629973731645864
1.2008111375444621,26.451469551604006,10.027758069403518
-17.832925509103596,-10.190082243623818,-2.405397702002874
6.993419048906191,-11.255588476962636,-2.0488149742819033
14.881219405794742,28.09179029423741,4.915126701538218
-13.071042804527629,16.20773407542986,-0.8948724213545938
-9.297536502831054,10.966628227305458,-1.327033372476667
-25.53353362161782,25.344177728471156,21.264363048790408
7.584267744469267,-25.793867080179368,-2.4815465389772258
-15.29093316864107,24.61005839509659,8.595255135077338
-22.624612141629466,26.031693181688205,-0.2116272673594492
0.4880197613444819,-6.296420263897697,-2.043402004761987
-23.805139765393267,9.081020920867866,-1.4084343747030184
-8.764334477260132,25.17111176407476,18.527760478553553
16.560355062187714,-5.628296007006671,-2.048393855644469
-6.392471653379521,3.589930174593003,-2.1749599088394
2.873637394284232,26.823356471722285,-0.1655299340575589
22.429073419549002,7.5022653201207925,-1.8905428291340356
-3.018472171463018,19.839865486838985,-0.6158769778723652
11.850601639097738,-3.076335924126715,-2.0471247044411265
9.305883598986478,27.38106460192485,9.35720881646165
14.229188835079142,-28.88079038592598,-2.573623598302124
23.74534928637654,29.154382256120424,1.61600289584398
3.3148266660854717,-26.076692013899983,-2.426237293444634
-19.025177405189478,24.192330402986716,8.314188271841397
38.949188071850195,-6.609096648398719,-1.697882174106914
4.606487093483946,-14.984561698581858,-2.2271898062482713
-29.734452774944458,24.83091234117462,25.54216341066012
1.8462680369262865,26.36643515583036,18.858485168960907
-6.147918379409701,-16.729928422554686,-2.309469105220043
-2.0162341394688674,26.013408673328186,14.152673367071724
15.284842979241988,28.017066181913783,11.640844117930184
-19.135259507473677,9.542785542774887,-1.1820292000417072
7.820244688857665,-18.05736569539752,-2.3045644718632383
27.768918634662928,29.3848258859245,14.186841990644977
-12.63062081977443,24.861898648764726,11.350929920633076
-0.7424156550600404,26.258830538855975,8.499794137708479
15.31057162765946,-18.51503701488401,-2.2175360315932973
-1.3726443045242263,-0.42197218710331125,-2.177999288877367
-2.192406641781183,8.194261525490964,-1.7414453879828589
6.348048086265385,27.179955948785427,1.8867520010038896
-12.283231081653039,0.5576189503991802,-2.2113397906029175
-0.4194197608308008,26.221965856318583,12.601141060508056
-18.49736156643115,24.124650158284474,18.47545345014159
-6.750907096030848,-3.3260838984624908,-2.232590884422036
-11.246082028406878,-3.3067277936484136,-2.256998841114853
-6.527233413498164,25.652730177653847,5.773688446153571
24.515736963626924,10.97642950958306,-1.8157329255160333
-3.5689834665004208,14.783320106374202,-1.0280299517908356
-21.33198772567862,6.10018482211429,-1.773559000383569
-8.078834301609817,14.980062495951627,-0.9408401644547011
-26.76218134247557,25.2904964987822,17.139599174683127
-31.823463577294437,24.645252282956022,23.790883288686707
21.544928632436736,13.386480379395238,-1.4021633148139736
-7.1928086811194705,19.869111117471988,-0.6484936462217779
29.193383225586512,28.698391931108166,10.521587539941933
33.195828702829665,13.895131118968145,-1.5466296821982028
-9.494357576392039,8.972251326270912,-1.5298646496396948
2.9738501723995574,4.735120559573158,-1.9620623293662212
8.337224861803227,-4.286339770260949,-2.0447840097777727
-13.015383856418046,24.85901203151799,9.079232564758351
12.740427084043292,11.92389358654719,-1.610615773182661
-0.29619928763266146,-3.596106235220496,-2.192927784645342
-24.391675824724313,27.378909755226914,24.82771148641201
3.542842841165989,-9.08364667042732,-2.00168437892121
2.001524934962637,-1.9866816881433118,-2.1731231207984316
19.148473764536234,-3.4914803461048347,-2.037718578741855
5.9205678114510825,26.83223453607101,18.604868931379727
19.39738663871792,28.499693668494473,10.689156874606342
7.749242133388703,27.098644203941543,15.288214518938812
18.35772338007588,28.448921258491218,6.950959872674943
-13.394600319139267,-6.599344919740261,-2.3086876523896516
29.74103345354434,-26.75476180612369,-2.2114198534825444
7.614254680536178,15.268156097081107,-0.9431492857724717
7.416107312116365,27.191664866550067,7.986299480514824
0.6721750237538658,11.649203042528509,-1.3665494150824407
-13.95159836892522,13.18438303613557,-1.061129180169868
-25.28316112707628,-2.8991448402201887,-2.348917999834786
-18.55710884576724,24.20257382359836,10.701744034584856
29.046080521085557,15.20759904001988,-1.4090890146484862
-26.013288903594184,-16.162800418249486,-2.4481066427684777
-2.4458957005494373,5.287920433131906,-2.0444066804724312
-23.971209761076608,-6.413590697371034,-2.290357141909842
-3.6396292774453993,11.341989314017425,-1.3950173286133472
0.2795258765391748,-9.88667544015318,-2.0305350709498633
8.967491554911053,27.488039794957217,1.2426545407118197
18.131671978182844,8.658365442930466,-1.8545675232648964
-6.507796181779629,-35.69098264888667,-2.9000554114524153
-13.388811639316838,-2.036997446834867,-2.264402809670997
20.758176281255697,-5.661472501266251,-1.9859527768195702
-27.68031869971441,6.107698696652551,-1.9161381496432317
-31.181823415638288,-10.857205378411773,-2.2319419449265765
-11.614389030364945,25.109805401028993,3.9304985781640465
-2.392350504761521,-7.993499394516289,-2.0356921977787206
22.944392977182936,28.887840985737547,11.438444339384596
23.51754192731545,21.475024957995704,-0.5863042567784925
-25.483681977707878,25.294695782805775,24.31160678957487
-25.028898707249525,25.46059839969953,17.6975317208999
4.915278229019395,26.957068888781293,5.27592686524978
-29.92147213841985,-13.83999645662697,-2.2285151717639424
21.20943961143402,28.82118758488162,4.190803885395798
13.714079088694165,1.2324217235644197,-2.1289156222932824
11.328582210938313,27.640131006420155,7.677543570470969
9.803954004581087,-18.725272588572228,-2.2127986500116164
-26.80218689528873,1.876780865218858,-2.1477221839970038
3.9417038047300608,15.988392550607083,-0.7077217298466576
-14.862280533251202,24.5882241449232,12.525198846526653
-4.203229148020853,4.836200986282504,-2.0732310449717124
13.090673599113014,27.946537314604292,1.705957208977632
-12.681883002737488,24.962802255604593,5.3910607668999315
22.397659902983417,28.921234238375156,6.116257392457224
-15.344875534884977,24.69687616930247,3.405169213950646
5.8367261199719955,0.16502169962797797,-2.2113109515788376
-5.205916261996565,0.1084128658853305,-2.1943562892744826
-34.51600900987117,24.75309598502486,0.7819464143614585
-26.43585569946483,25.603487561098188,1.5816758730985083
-13.085289289031422,3.7419242941827084,-2.1042489020939774
-16.434488394021027,2.375349066444861,-2.1515818073722612
16.888812021654157,-26.45202457145353,-2.508712968596264
4.939158751089544,-32.464187069932265,-2.6249395992916185
-2.847178914997847,1.6452200455984405,-2.1681317477806035
1.9205581005807146,-15.10842258994688,-2.1637367545044026
23.94408336624359,-4.670202188573843,-1.9500764211397923
-32.961301047801825,24.885401935557045,3.812019774233344
6.701455029885395,27.182532982177147,3.977470485950334
-26.37278798758182,-20.22110131008935,-2.6565149157084917
2.8665457321407177,26.757160861228474,3.4868257638267197
16.736133080532856,5.370602833829844,-2.058474489344466
34.36520794893203,9.194545465634981,-1.9665116327032757
17.277752908115318,28.275106821692365,9.830111571037714
6.626995762059683,-7.816672595402876,-1.9731257657820984
3.6824961152218387,-36.014396102072126,-2.893879266293458
12.172998293638985,-13.006590173638086,-2.086309994112469
26.378500655986418,12.596449946311084,-1.6159175243501742
35.87985687074567,31.965109102332203,0.2948558664547116
-31.581489125271105,25.083844017716903,0.7424876432957016
0.876799507678667,26.48472388152767,6.121636086119351
39.76103856198228,15.507770825702663,-1.309762594567811
3.243194122085848,12.493369556191418,-1.1913539267361377
-29.80645252425114,19.233720864486177,-0.6530595495692011
-12.252340729738059,-20.615405887302487,-2.51064475893805
-20.41813728342255,15.812551115806636,-0.7925536010984212
-8.757949444713814,-22.13852931410358,-2.4924651883095303
8.163824600847411,-1.077851447720388,-2.116458455322895
-8.918268160343596,-18.446365451938643,-2.3995543058821696
-9.48586820033275,25.23157314282962,10.58845370618634
26.423127440281714,17.797970795069322,-0.977706282512621
-14.388295735454058,24.4776257137821,-0.5227156259381606
17.66879354796818,2.9104352879570827,-2.0971410441419205
6.899479860890063,-14.91637624866302,-2.129488684210406
-23.889800488583127,25.5257445035008,20.664421682682743
-25.14182796893558,25.57547547092003,10.639319022761041
-33.00379643272236,24.917485460798353,1.777296586095334
12.38421664313403,-6.756267968321904,-2.004233978749525
27.245073689478563,29.548598082792612,1.7273765214471484
-34.782735739860485,-27.353616086814547,-2.9912015541646166
7.405708828222635,-36.520133626282956,-2.0599053711099495
13.419876923291113,27.757401952525314,14.351269360060217
1.8513962769092989,26.439671221380593,14.800486640081331
20.042006625746133,0.32057145034815315,-2.098479539546893
-26.635033240100537,-23.728961532124544,-2.851495509238334
-26.579574357646052,-8.52935004043481,-2.2313966897645385
12.422361107713039,-9.620330065769576,-2.035835239197004
-25.767051999803037,25.575964341608778,6.990261725899797
-7.780656399127523,25.309899605083633,16.996062239671563
3.416855912739269,1.842730146082928,-2.105742712286275
15.737768325956958,-1.6860171698395967,-2.050847485227677
20.78429173562142,-27.107312851555598,-2.3090308333465854
-8.442773684274911,-3.656378077368535,-2.2447052766228093
-2.665325607762412,26.06658341937422,7.07840879695577
-15.667457095571484,-1.021095798470895,-2.2306084673023703
26.98728683010667,-6.653319953264081,-1.878904075878377
-24.757170540233723,25.810233422556145,-0.21944979229939088
30.14360517766664,-11.077179747141289,-1.775273707815164
25.25611254625363,-14.594046905906554,-1.9717923877436856
-1.3877050925368672,26.253305809094027,4.728089275617356
-10.934389237986009,25.24809299221228,0.5065308807590514
-4.912171481358337,25.848246071654913,5.065928542748096
24.871274417629177,4.726508891962638,-2.0237073642053973
40.463949780791495,19.322634166779757,-0.8255119567068608
-26.098768902007315,-27.61748810287352,-3.037455996522196
-43.61049450659567,-6.634977648372843,-2.4385084565812774
4.654776572513488,-1.4555860673298828,-2.2701618423954555
37.117170922935706,20.017504847657737,-0.7763599111464028
1.2954328862305233,-8.514643418953261,-1.9896180113775142
-9.509389694302401,25.294138243144108,6.945299250942802
-36.58471786155934,3.4658493015641834,-2.031440285546054
6.027965077683171,8.856613592237379,-1.7912990341438286
-30.57635316426089,24.90350093549177,16.61860854223173
25.475641787265523,14.974943745433672,-1.2700365997848095
-11.647097641179835,-8.930308827481504,-2.269203250037928
-16.620152617607385,4.097454988089454,-2.004725655007152
-3.2716421287527484,-4.562016374089963,-2.205178264134483
-19.897941467936388,-12.027252817757597,-2.4341040329807013
18.633381976985326,15.408434192966146,-1.0391613739561738
26.355764934162607,29.297501965473383,10.128498263009478
16.198455452163536,28.032664045347254,16.546590616995847
-8.854531528395173,25.430157109822428,3.489070931916508
11.258104625324634,24.82280649817091,-0.5017879950331686
-30.190104623735103,25.211422155868384,1.6904349468128574
20.088402331856017,28.750034822659895,1.076360862960854
-7.141513308942686,25.43743100656885,13.91451187737037
28.146177355190403,9.032070857580095,-1.9981828693362949
24.872072986115178,29.051558583739144,14.483439743271342
-24.156053757289843,25.810230467018055,3.2628705478581344
-11.602135498216567,-5.0246276250838084,-2.273845034565158
10.50966798016115,-4.157599610392453,-2.032624462542556
10.144862954959699,7.390337132239196,-1.9405917694271928
0.8910140952672727,-11.495844326884173,-2.0736586697134687
15.650227926656122,8.68983988633681,-1.8740593978544466
45.01995161957117,22.18074312997949,-0.3079502788767026
-19.248956647250637,-1.7298159194355534,-2.263399076003148
-3.283730018760332,25.832064533597958,16.266623403412826
-2.2543107733331538,9.866977778627213,-1.5648698586869851
6.724372634841647,18.298595707493405,-0.5982874351065267
-27.62786460706496,9.013106950955892,-1.6064715495838329
25.80550566822382,29.40365443442372,0.7202226094894452
7.761084671153276,11.709390960176874,-1.470686997067369
-4.5193130444607705,-3.044098461125654,-2.217944705167822
5.759653397982801,-34.96594726496874,-2.3954741297904847
-2.9937738508133145,-15.349050805323738,-2.221742108332279
6.1231877806501585,6.479503547416744,-1.9445504677144798
14.920941385190611,28.166774842535,0.9782129792856942
-41.77559923488481,-10.085449134539461,-2.375679766914879
0.11537890134457984,0.3139730623998877,-2.1634810706618937
-17.601628369189886,-41.48720302672368,-3.6024774597596467
17.901175329573526,28.503192302789202,1.032949132794788
-9.750783748224793,-6.395355973041806,-2.245220244898264
-20.560470876501277,-39.99152613874847,-3.594531017667808
15.592679351100722,14.593345111996946,-1.1805734083681532
-14.955953399573083,6.783104406678607,-1.7192587967075095
22.200404655681513,28.666526146696025,19.095089963163915
-30.751797845365786,25.046395241969424,7.6363832500288416
18.826342407384537,28.403891071770186,12.429171465858458
27.89930280861001,29.522797274012067,7.305221546237998
27.715519000535405,29.328318861943718,17.005251639694656
0.3427235648485171,16.457365692200156,-0.7074562766189828
-27.849981983286302,25.05358919122774,24.04501246971851
-4.259863756395432,25.860960924183583,8.48042412743639
-6.503583098789817,25.55978189414752,11.11463748018952
0.22424927504940578,26.227104910791443,16.384140817058924
-2.00793544881536,-44.23080509940692,-3.539302113454589
13.369804945194169,-1.2665870297728623,-2.076397105354283
1.2091374229253378,26.634880978550438,-0.16359995257509252
13.433599072559,-4.382476420065926,-2.007512865035061
5.302250763995213,12.497454742853114,-1.2530340516935727
1.2397977189336566,-43.85095866722545,-3.5066978103537667
-1.1746008575232765,13.070663028506898,-1.2112788587811973
14.7532405248338,27.85020015380537,17.59933378981836
-12.55686106307438,9.240562542472937,-1.4389944993579942
-31.33770294057454,24.890214939418957,12.948906040657594
10.927594715401455,27.623004387811196,6.098597402608375
8.493273031685144,10.170501284666239,-1.7168929937392428
