30.994054156628287,-19.20232329560226,-2.4646439714332735
21.645915864718912,5.933489896061005,4.607815581357903
26.233728330855346,-1.3528616566862208,-2.4245807945632025
-14.925406828598438,-15.221925052628224,-2.7622758588611838
-19.829974253325343,7.704823063072014,-2.4914998628302873
-24.03328915065616,-0.5313944971270705,5.864978205828779
-29.6542262690312,21.544248097928737,-2.4777421635954364
-32.185241081675855,-10.984822318844435,-2.718498421161585
5.925039467165385,-26.68942548043411,4.916788343333195
-25.376172018469333,36.218527551873656,13.119323880754331
-5.430158903802729,15.910223065773234,-2.388401276138463
50.36142044037589,-22.47065872197815,6.4584761979763945
-22.896989483784715,26.67511023052313,-2.3763630670170928
43.39619059347133,-18.72772924592573,8.500280001418437
-18.42776664237912,31.796251605934582,5.221139291272225
0.43730895885775506,-19.778098405651026,-2.8105745865205884
25.782576289722506,-31.572717070033292,-2.7554536922780755
-27.08073461652273,2.0639489931081427,13.462598920335864
41.57052687011476,6.584884992108733,-2.3266499179607556
44.10755302926187,-19.03471939669744,-2.0646379898123524
13.776893917715034,10.971311740883916,9.834662245396647
-20.57317787069892,-23.152605153353992,-2.858754554408277
19.170524562052908,7.34127789191659,-2.404121153376588
-22.08380341613062,34.126864058351146,-2.247054240471531
8.120816670059046,14.66982187767093,3.87350635790081
-4.585030007305012,-5.9958364408827425,-2.648593920406533
15.830284995389164,-19.385382736039784,-2.6201776637610448
-16.583757835205034,1.0594110168437711,-2.5692864116557153
-8.954899991453837,-30.600612881915477,-2.942878685181086
-30.824385278164826,6.209465471501988,-2.5134951327316135
-32.60124277212345,40.938027636523366,6.128928894245259
35.87190213874207,-7.685507257226429,-1.5766857334168367
8.96834973578532,-2.0368763998560744,-2.484432806112739
43.13273300179239,5.7511298828596,12.330014455585703
-39.817994121044826,13.26178093323002,5.962480471523979
-13.044396661771348,-44.57520831119973,3.1395577783645874
-6.635262692230144,-20.76883738215869,-2.825066302755099
46.62647100545509,12.167902094294824,5.044836625973407
32.73705957466353,-13.184430136021366,5.013996551822789
1.538934703551673,-32.96441210931169,1.4182840455784
1.8800048080264988,18.622729804563317,13.354831712509922
-37.00973473931763,24.206018763474958,-2.4446122264342747
34.878840396156455,4.215644405876286,-2.3748930799609282
-34.078470805776305,8.18087386916517,13.272529954512876
-25.436112094947095,-31.623168689158128,-3.244107634687108
37.92951259145233,-22.229962741193688,-2.430299650536795
-11.495938680303594,22.289892044690497,-2.3148552002824
-23.772962439316704,-10.122143862562124,-2.705016430867026
22.412350660761117,-7.160335046596188,-2.463200136188159
39.63879729344486,-0.5830642380388338,5.136645628998908
18.07024864583683,-29.486784729697007,-2.764471527672181
-36.1106510257551,-35.063716427318504,-3.4024236280298163
-17.72626322758213,-41.07557768657667,-3.0241427338931235
9.402413813807513,12.295521575053472,-2.39317926603618
-5.720317051868515,-35.007641734191616,8.654295807523479
-10.156470448797812,-9.622694723202791,-2.693860450617247
2.081201405927857,-13.138671225226442,-2.7309858707261276
35.61360778343671,-5.819333088157663,12.167265061683688
38.07398419730261,-15.879555415526651,11.6891463276224
18.223812735331208,-36.425218979129866,3.7593307991969294
34.839810004658624,-14.031285855440208,-2.538916872546017
-12.715710239024165,15.967369735619698,-2.390512669702418
-30.83098936870999,-19.41842703599081,-2.9126177098491923
13.385487833795658,-6.573489243887298,-2.493402962523267
-11.70014664801502,27.479074648061157,2.0188939467810356
-5.867802297257563,23.670120413090512,7.561301008229901
-0.9607745795456939,20.58006042179786,-2.156886961866578
28.333723730446646,-25.177069024618064,-2.5622029271043303
-12.809676596154775,-35.52750678508011,-3.0189081162632876
-22.10658692682011,-4.060218433156985,-2.6322870044912188
-23.652794457934885,-39.24513706790037,-3.0974530996974905
-40.08433923604174,-22.578666135484017,-3.109904822352717
21.59297760670169,-16.936140934477745,-2.532930281860999
-1.8702857507629653,-29.27699021451798,4.905162573301965
-3.1799426987326918,2.8962760619320522,-2.5423067727477404
11.739958160750906,-14.021664174675168,-2.598121481140975
-28.276482302336746,3.2055655212058727,2.6266259070807227
-18.5211433195222,13.806292120523855,-2.4184371374092617
-35.45879113628854,9.438319207906916,7.533122107852549
4.703517297442788,-23.951021002480722,-2.858566467108123
33.87617065204614,-32.41052094726277,-2.591681881592074
13.523693844210115,-32.87541926442767,0.2181245344226904
1.9156576267512093,-7.340653639214755,-2.6620967375328535
-26.837963730805367,-8.430328567057444,9.102127715064338
-9.136579013570508,25.73251866736076,13.535529762681206
-24.269357931204695,19.52107060739173,-2.4897065226916464
-33.096698123399904,13.803673637042676,-2.4240519964290024
-26.7729942778436,37.23144463876465,-0.8442423678787394
13.797512621127211,4.898939970985536,-2.4480799377309777
2.424675472135353,4.13706311257655,-2.5254037311186313
-22.084158794180954,34.127413236324905,8.86653105765925
4.456005442614473,9.666276652954211,-2.4588697369590538
-8.970337472689947,-39.49632079236064,2.7378594652773747
8.855452882681092,-29.45064494640323,8.714056272810033
22.95337322060013,3.347674746761438,-2.428427075427791
30.591206294129627,-4.613980824146302,-2.4730154554578205
-12.347983738019513,4.452146874686795,-2.527315844943866
26.74720615515253,-15.238308621533568,-2.4607224967719428
4.541590002364488,-28.671159701739512,-0.17811968657491717
43.03234907004773,-18.570712571284076,13.903933137112952
-25.675225782181883,8.202763814475478,-2.487817379699141
-18.03306375140222,-52.00598384078698,3.042791385273501
11.936980192163562,-23.145043412488686,-2.7263520172845057
18.061497701568257,8.219593746818793,8.0773111923592
-0.14144118417354948,14.380479766145658,-2.4045676060490164
-27.585911846370983,32.13772884127681,-2.3412790386985067
-6.9194981763414605,-36.66784214628105,-2.9828356345809373
-39.689984580474594,13.219146076254424,-1.797915213647819
-9.580605968393062,-15.048185741357718,-2.7581621466748065
-6.218360577896348,7.426922868584116,-2.489590328331048
-3.6442974885670902,-32.14656283211871,-2.186957034641591
43.75164663371002,-18.88112714535842,3.2211652693671655
-16.09429133870734,24.87106420402103,-2.3680620035900235
-14.011747125453493,28.88681400325073,12.61139256642665
-13.054819572422213,-44.61082539840722,8.35946292340356
30.109335172397284,2.1472497431668125,-2.4129508938887976
-19.831273495755994,-17.886200217196937,-2.7958399580221314
-23.779583296587813,-4.3674902305457755,2.231558942288403
44.22161736093805,9.249269939248792,8.698737693745873
-11.309996348879446,-4.172707213100129,-2.6294887267134524
-32.60712830642962,6.986033811843082,3.0779253053713242
20.884526728907762,-2.1083380941328698,-2.4582939044483565
-27.997028285162386,37.94249007361133,9.079027006961981
44.85330635784025,8.808321878209332,1.4028059009857656
16.548265760836596,-35.21007728603011,8.485983801717953
9.885382935761982,-30.170086276808775,2.537851993000197
5.081132788778576,16.60449957241955,7.3177765710961165
37.68273135132623,-4.271905644879039,1.6298979929824442
-17.848881727796897,-10.938246873237096,-2.7124524396843652
41.36681977719323,2.4402697024607343,1.2717234672438877
40.81261370727563,2.910554942483524,8.400065910991634
33.459617312096974,-9.791553127983967,8.505705385675371
3.7497684590705482,17.50194524639137,2.542941485819561
39.02453919048646,-17.412278967986506,-2.362254812705247
21.913654310512737,5.7187085882468915,9.873152502194484
-23.7559120053565,-0.8170267147285718,10.711484233048521
16.89066506738036,-24.107458668988247,-2.716909793038733
6.916170883471801,-14.258474702460203,-2.6497104103823026
-1.7617349236943662,21.05807773562092,2.7380755607686593
-29.491548612305806,38.95802747573892,2.7010587084897755
-21.4898427703909,3.241249184590995,-2.5452185034962524
-5.471518030500936,-27.161143032781965,-2.900640569818717
-1.2179999344386596,20.647219332252465,10.252427242982751
21.092278140487384,-38.54416270495683,0.26960279509626867
33.4470100476319,8.728516973949525,-2.3366661078468227
11.02449147127377,12.717665361336424,13.640778945763806
-15.368013892400292,29.797598972044966,8.179829806187097
-27.024153222398063,2.0596366613680352,8.403404293161849
37.62877644528337,-2.867864419333328,8.71790197759792
-24.047650101398553,-4.722493383604168,7.929559796956821
18.101320660184925,8.237716747858567,2.576885771247702
11.768307548227055,12.300487099179806,5.739851450148522
38.355426280327634,-15.996936752097506,6.948545384947387
-13.255982300421511,-28.7557979613592,-2.922587035106389
13.968218234161755,9.533303881387752,-2.4026121569873644
-17.163448451686158,-26.24201363370613,-2.894188919816409
34.6976038070218,-9.693197860797092,2.4352881705828655
24.11494240111974,-11.477501726764567,-2.4650454039394685
22.493248215699523,-34.7595932468423,-2.798726342103758
2.2758918061063556,-31.913190081515953,-2.953056263347182
3.3009110976148444,-30.4421998238069,5.119845587542737
-18.461289003058262,31.85409287532247,0.6777981399083065
-3.3603469905669865,-1.6299593399363717,-2.596203846685362
5.30149333752635,0.6407670231375058,-2.5658811332078484
-13.883719010413087,-19.611689460109474,-2.814081791564395
17.907294023525015,-6.957776658057441,-2.489278532258149
-22.14272295344543,34.21791445408392,2.253049376077255
-30.392305828759433,4.96616214819334,12.535041642807759
-1.9682572091564077,-9.770618553240329,-2.6924828197236774
-7.182671669509956,21.04503947206493,-2.3280071689324986
-8.273450912322632,25.2504864458724,4.1082697609432755
-15.393438242571628,8.276249346549179,-2.4830046292056203
4.970152976054801,-4.099205875867101,-2.622377888359175
-8.73372711411976,25.589591215079732,-1.1620774126010263
24.534498042169613,-20.235183709726254,-2.5421907133493997
-22.869212088822156,13.028953742656467,-2.429347276634225
-6.79923138098574,11.731756534164434,-2.438617895581554
-3.1801258457052106,-31.501315377615715,8.553099156046565
-3.3431900900210207,-17.716250999970285,-2.7875024624287756
4.1152727904344735,-17.51836000517133,-2.7822918095277664
-37.133564997437055,10.866689571264057,11.477987708887973
-24.667296675269398,0.06010263064110468,1.6674608082548283
18.663690100177693,2.9563794854469485,-2.4484484964536866
35.859470660676266,-3.176072096596578,-2.433511810145909
-31.1459077360031,-15.107536024584466,-2.7671293725501673
-19.172165296558354,28.845070945487866,-2.341277194197713
15.553109009479366,9.795887795605402,13.45819685451724
11.316708765249437,1.5089204283146314,-2.4902569424396224
-25.50010729469569,-6.654649221030879,-1.1326447352593874
-15.399303184767202,29.858266914733992,3.1008478776125736
-26.636199010306427,24.864942717508278,-2.463152769826624
-32.28130896184844,17.8700596458998,-2.4941878623477645
40.15902144045503,10.480120638616922,-2.2943195408061388
36.521149754134605,-26.53317284310286,-2.4954299276467933
50.73169257628742,-22.63586968560013,1.7048662085107658
4.540879000638845,-28.66667113187444,8.610242133415776
-18.19198304445087,-2.8816597995109787,-2.6167714343536472
-1.1681632697101918,-29.745269938310383,0.9135635612488678
-26.70796463049569,-12.954881303142288,-2.7398289424448836
-13.035283611144104,-44.54406726722563,-1.424355455621989
7.4366556091821545,15.143139280771074,-0.10351825332116753
-22.23125311874396,-14.002014708068238,-2.7505669350044006
-9.355745763335626,-25.94806501095953,-2.8877021182075406
-12.279649047258946,27.885643842903942,-2.059681653506614
21.682255149755147,5.943451072198809,0.41389205451033884
-21.31004992922339,22.49212913786854,-2.47676354093956
12.725515422738548,-27.076334645264993,-2.7613891275825084
10.903088729874641,12.893968802723101,1.349797281148069
-14.359567505470885,12.142393163050683,-2.4366306992877327
15.185662058391678,10.093302376387536,5.899859675342868
-7.565480735533762,-37.55577578728658,5.923246782321921
34.61962856593861,-13.942610609899846,1.6040114049856156
-22.04640248978841,34.06906711527545,13.13024167180198
-12.586398408463129,-0.43287850786839255,-2.585502028712007
-2.7563602199853263,-24.314015877598024,-2.8657411492109963
-6.146046809268551,-9.920201046675873,-2.6958621806002485
-38.524602755430585,-12.622782951014637,-2.740406295404404
-13.957088274764127,-10.565631116662233,-2.7065302317462314
10.519181567287099,13.077857651063104,9.372135292148378
-8.405315578188715,4.127772721529132,-2.5296630551676547
11.53574959592164,-9.999930759431756,-2.5526295189673758
-2.607311999901896,21.572032731413103,6.737298373483817
25.886276900498324,-5.2147006712003385,-2.437291094901806
-0.8736585626975957,-4.629696178875237,-2.630925403715833
-28.96322379777574,-29.538626785534714,-3.3069022083575828
8.504702183019505,-24.918554178046303,-2.756496268060109
-29.32356516317674,9.766506474262872,-2.470618305471295
-4.128096403822608,-32.81147670600882,4.698297200673312
12.767064564100755,-2.571880862110095,-2.507569543055499
-38.783055400991245,12.390475011083396,2.2506633249359362
-7.365002317046724,-3.3517335046498866,-2.6182140701876953
-18.396715358858128,31.742674064896594,9.429571256249446
19.558734127515013,-20.142720012244688,-2.591423063089157
-29.37584988265361,38.80519066313365,12.509103994292126
15.530586584303856,-15.606452943338812,-2.578522677396182
-32.65185928201825,41.00158779266286,2.252662503881967
-17.118907752105972,4.782375201607297,-2.525216309142143
-22.97609048104022,-20.216821600973166,-2.8247614642194145
34.5424315699569,-9.649848608072377,12.092780425157228
-39.87981447688973,13.282370820654712,9.710251306553184
-9.4836843058781,17.847187818311877,-2.3669189040582954
16.500899405891598,-35.109294941676076,0.7141840453383528
34.99502626566291,-15.102186802451543,8.313608089888193
10.33789588074192,8.655639130860928,-2.424841780028039
2.52219897066716,18.23734599131181,9.696075871443675
9.292010166204218,-5.756852019932289,-2.525148297999152
-10.026729513983623,-19.210812477814283,-2.8078368217932206
-34.56771553766726,8.748326564778472,-2.410372532656967
21.126076094349965,-38.605925299973705,4.607256256552944
25.05102155974862,6.53745332057036,-2.3896370086046983
-6.611920726064205,24.120893815895613,11.270600515579769
0.9949735795260859,19.29381799880518,0.8303095428635907
-26.988989608896997,4.750801982447049,-2.529372900680698
12.085128189981774,-19.18777757097637,-2.6557201318244683
-27.739180350349354,-9.088884187187425,-2.694247866815165
36.177061999457685,0.7999026495385918,-2.446088789996056
-3.188719328181169,12.218928797075439,-2.431441087268656
-17.43881822251315,-20.623108156621328,-2.8274719388618603
31.21391238883931,-13.018418270738351,8.692330091026346
5.227780482446521,13.454786893914466,-2.4135194650359564
41.72659351192523,2.9757354883028375,-2.312483917119858
-9.74913839292778,13.914606081417265,-2.4137885715379612
-26.48817741234649,-7.964674710859884,12.874984152515967
0.8411789445217016,-24.458163517278468,-2.866077241968211
4.883119298754195,16.686556350153957,13.060733278786746
-22.10829699441626,-0.48883144084183755,-2.5898151696255085
-14.90994813444156,21.280450294522087,-2.398306042927566
-18.57484364421315,-14.423266417196654,-2.754175917570467
46.703506235512705,12.18800563455724,1.481297399203903
-33.34715513890342,7.573749385992657,9.6897039392109
-29.548230745899374,39.03290398178311,-2.1040150797254684
-10.545756304485494,-41.66999269674018,5.033979837052509
45.93957930417473,-21.17744223141587,8.45807885027399
34.10426143958098,-10.895686138431037,-1.0987506733669736
14.966266246724997,-33.986636638235765,3.887790139255948
43.19393610304642,5.759290436574829,0.8022313272688852
14.88677353911027,-31.6748869293722,-2.7976837847963374
44.85170336589531,8.808007081594193,12.34777924047522
-0.7897869840954678,-15.3149858875863,-2.757967393744133
-30.934569816085148,39.83874255069464,9.071113342850449
4.078313987008932,-10.270638595545925,-2.6961129075568344
-19.50117660216576,-6.389660163435272,-2.6589916391546398
41.298407092678325,2.4362339703888733,4.845013526422917
-22.267487477188947,-33.15051045248882,-3.1922617302395024
26.206357787096714,2.192443978790203,-2.4272870415721717
-8.970823057799405,-39.49845881953226,-0.7456793135115886
37.85927826031542,-3.8219759350406832,5.406031824796949
-3.836305083335481,22.433531547055253,-1.8192922789085197
7.934900756551691,14.758545766608922,7.799739305154517
39.70183908937745,-0.583991547120336,1.706486026113941
44.77149570965929,8.792255849174731,5.343500650959785
-12.824177688134569,28.179477352927606,5.176643918136649
31.029753927114324,-1.2186078284371278,-2.482325459303706
44.57490456791236,8.1868743366837,-1.9477793286122163
33.57937054096988,-28.394582157218487,-2.430932820881095
19.16292850872155,-37.15569642445631,6.99010914211981
-8.758919707589179,-6.463037147142631,-2.6557490414345253
-3.6440949189025895,-32.144775953174765,1.3903638067654547
2.6504709625087104,-27.599922291962212,-2.902747288106869
20.637607438407198,-27.26206372504629,-2.7332371844296883
42.6824554784724,6.225097155080181,8.855368974895509
17.102798584358542,-3.664251818333568,-2.484947554772442
-16.098639462645266,16.177280739638743,-2.3893122758925576
0.004215034820894396,1.7299328384547936,-2.554957622132297
-4.477392974488318,22.799561771917517,4.1786810570538755
1.398018809588802,11.111916272814902,-2.442849038530829
26.596165378210593,-28.07146807471706,-2.6140034261780647
4.972540996972649,6.339812995855155,-2.4982316134011966
-1.2163549252667132,20.61933356295446,13.618773240094445
16.722609282211103,9.151007609505877,-0.35094145993209064
41.157001973361915,2.4278923422361833,12.230800398450238
-25.262502228097574,16.083671731793615,-2.393936080057821
-25.819525116293125,-7.077542588453018,6.184646222139767
8.345023328950779,-29.040809150897655,5.434168510003312
1.3836169022023403,18.15420936495679,-2.3591045383311395
-22.315712647657964,-2.4197391764123224,13.267398737237823
-0.8444632251843432,5.3311153095944475,-2.5124559097295043
-30.241995463072946,4.941601140787085,0.5641342793012526
-26.576634744282774,1.697780437854422,5.127532271931589
-14.470686457151524,-41.73235876223192,-2.985797637157639
-12.839832755083384,-7.441425633129996,-2.668947812003894
-22.151447536140402,-2.127243977392416,0.4096808966484222
-39.141242757062884,21.66753347920332,-2.473113562929507
-6.505200604159457,-16.742494855133675,-2.777133458151074
-34.58700766442517,26.448764833373364,-2.406912334907389
14.917915253675018,-9.497667717015146,-2.5124824013314533
-35.404511899281935,9.423871316458477,3.8355793824281625
6.4776086223969465,-27.574619131814874,-2.6144086552623573
36.14183239034046,-6.361953206010212,8.953308197958732
32.041874966924816,-15.735468371744465,-2.413050255054626
20.804703891945564,-11.185604819245283,-2.4729024071351455
6.92903681659223,-27.9510330251122,1.9466202505141095
-29.448835210868715,38.90160351887441,6.321971201349615
-25.42865937492318,36.29344092984355,7.9698072085697795
37.70359760062368,-3.3394063569366765,12.247264680213673
29.797919160086455,-22.21238556446318,-2.512336148623235
-11.409386299524158,-42.8638867658913,0.8165939279806672
-18.095183084479597,10.605336538221442,-2.456341115458938
-21.118122576608275,33.5296268559635,5.629676661532858
-23.178291822892902,6.169531163023734,-2.511040922939383
-30.66279645844083,-22.62548341143803,-3.046119463169594
-40.38440867931371,-26.133117324397148,-3.2516176923717746
18.748729862461595,-15.463287344980941,-2.5442808705343314
-2.852556456918834,18.008252988924166,-2.3624631419522544
-4.138855934162263,22.53474289436235,9.988293005989757
1.9766444213442502,7.426049081751598,-2.4864613124209547
-9.353783482628609,-22.42731582739217,-2.8458310833913543
-33.298206699989244,7.5626322994637665,6.1409897699562315
-30.2896618233352,4.94938991717708,4.360343412642926
-22.22257486063472,-2.134074464312592,8.142807003415864
17.560627532994424,8.51790274721555,11.215234060869653
23.291419565159607,-0.05675026354369754,-2.4384016184774575
8.19742353099243,1.9256730652185552,-2.498033161100192
39.8297729969275,-0.09704647276383366,9.201175549687678
-9.148255061675563,25.765403418357618,10.354428233547441
-5.476819903659409,0.6890528198793345,-2.5694359390048036
-10.103317495014371,6.786486625016832,-2.498694955181059
34.214636042374615,-10.469999911337416,5.532159205277931
-38.335848212911586,-32.097563346963106,-3.3798179698094613
-22.181949630756122,-2.130173149265418,3.7259386901318394
21.886189244243354,5.711541152449743,12.997573997115053
5.760176725699989,-21.013653508230743,-2.8232292197597086
-24.326680362430594,35.643506641861435,0.2647914739707791
-19.728622691882318,16.682444871619612,-2.384695246662687
12.343662416836649,11.985789964014053,-1.3753399375166675
-14.081595597785839,29.030814591515014,0.19798273336284075
1.5388450616256046,-32.962491954163866,4.68810396006342
-0.07450140823983713,-30.576836989896908,7.063631643593051
46.535348016555474,12.144122134465988,9.26005536630024
-14.213822595777536,-3.1554616985295794,-2.6185036206327608
-26.66406749286339,-38.66226406914204,-3.1747553172930725
11.000542033314261,-30.982236655853484,-0.20173456348786045
36.25848323096789,-6.842249063708149,2.4942538503325844
9.343132717128553,-16.12113960561335,-2.6471898781692476
-8.704281955511004,25.50331767318682,7.279746512746494
-11.914236523256475,-13.081138894553565,-2.7356631542965713
3.3010904500474365,-30.44385387701536,2.070001391218233
-27.35194609735193,2.4225609354205253,-0.16848854852731437
-24.787870165488908,0.060396411676098986,13.445629237862288
-11.656869413497597,27.377433327345948,11.268817225570977
25.185851356343385,-8.388399533370476,-2.4501896729995094
7.322132404726987,8.446687078252712,-2.4382777115134266
32.39113902357176,-35.0392824700172,-2.6377870935748238
-36.92475757064466,10.805584598248835,-2.1267878700534517
5.057909709356135,-7.410860653136727,-2.6617279111347445
-37.94764811087639,11.61233665803931,7.640934063075063
-20.768385161893622,-10.07384757141188,-2.703291053093362
-5.700737532464735,-23.747147392619247,-2.8601276575941115
-15.803673362566771,-35.419319413904994,-3.100349815055716
-28.837286297660338,3.628093271387995,10.198755520993377
12.227108829724099,-31.929058345716005,3.155738749816921
-32.5627383707045,6.97652332723472,-0.20433929034775808
15.691132296751988,-34.479240536976036,-2.0940866647934384
22.906890017446724,-14.191931961819456,-2.48719062281251
-19.33755910145872,32.44176401993298,-2.087787460486573
19.087743011805397,7.579451713862987,5.2785140291592505
-6.270803505168323,24.029239843385007,-2.29216843239057
-25.194154551408026,-6.245609036803029,10.196028525069261
15.740295676464527,2.493305824464262,-2.4639925582007782
-21.095226059238886,10.359670362380502,-2.460411964848137
5.640416240203762,16.266531294247752,4.424998537359047
-3.9603456325922917,9.301305064290753,-2.466434340459837
-12.223956447246422,18.890102038567985,-2.35556587894615
0.8757008869963415,-10.467282622093423,-2.6996783663569075
-3.7360961076889545,5.7735183371042575,-2.5083024098020688
2.0598948068578213,-4.382879535461924,-2.626866343829172
-3.7905270105987072,-21.53373145824061,-2.8330729724748047
-0.07432562505358961,-30.504692127693072,-1.6862895461737175
2.888769973762578,-21.665402541724834,-2.8320801044182016
23.055793037296873,-4.058451570649791,-2.4508366447204746
-23.26790786486236,-3.6857001542419323,10.615974831772261
-28.79561681446501,3.622850726370316,6.704568676600116
-9.81558681398887,-36.87614659459308,-3.050391953802649
-24.22732563188872,35.49793186777764,10.485480079067463
9.253106340453071,-12.540112896866844,-2.6057544543447384
-16.058525721749646,30.220272564705734,11.072970229602705
5.700126780607985,3.493182087589315,-2.5318062589652386
5.260468962507192,16.465636630203125,10.216911451651384
0.3030822148056769,-30.814699996740114,3.226167707203649
-8.904972547762283,-12.25710313261021,-2.724710549371297
10.454230602270888,-30.630621278261792,6.6446038262562555
-7.566038889747733,-37.55854651861845,1.1757984021652343
3.3475185415118536,17.739188353512233,5.355361288646418
-20.127702269723382,32.8441094288707,11.427553225546434
-20.9861819746173,-40.20868479372024,-3.0659610334450558
-24.04709549051207,-4.722384468752578,5.031138267325596
10.964067629393874,4.828108089518964,-2.4594899306044984
-39.57447069860309,-19.799407205332386,-2.9912750617207777
20.7210182570746,6.508876526672776,7.323186836577661
-5.72059882696978,-35.00936616339812,5.4846797761924755
-5.165128727177665,-34.245378221324195,-1.0628516700141575
-18.640051167441342,23.406682229041305,-2.3918609094391425
-24.87343934711967,33.70929999827258,-2.315812415808809
-10.869510557054195,2.051158564968587,-2.555303058697621
-26.742913649573232,37.18961348478445,1.9686741092065583
20.440843290497565,-5.173126704594519,-2.4693739143555105
-25.854716676163537,1.015372542676389,10.904110579722708
-1.1017459655330044,-12.439272763639543,-2.723887668197353
19.00819657717111,0.18695772857370443,-2.4630548223845454
49.93546163568837,-22.280601038019714,11.927000109662618
14.888610736400752,-12.906406751476013,-2.553087441160541
21.70625791687268,5.950030612517615,-2.356271684905093
-26.83613055773522,-8.4297527315933,0.5178499822151645
15.508444973524549,7.057726852640654,-2.4207249608758783
14.262832904064329,-33.497823732841766,8.410646936984282
-19.815647433613723,1.0218840904827793,-2.5709707960543673
0.5282297558375616,19.573658164821648,3.5214854203769317
-14.05178190417062,2.1193885467462192,-2.555710727719803
-6.313040250184252,-31.33854046557268,-2.9506423769456713
37.25216885247646,-5.151921884883699,-1.1541222493071035
13.19348304176099,11.32482827066349,12.730709898491776
-9.180693161578096,25.85676299725863,1.5167728664483333
-31.04324519508583,39.97869893190011,0.3105797830405629
-18.03230166954198,-52.0037860546839,5.762323045700324
3.152419814004268,17.908686979038993,-0.11157718951143368
-2.7986861633689872,15.237948393653117,-2.3953881740121172
25.751954738116318,-17.760259926379796,-2.5006109460055357
-12.749757061167642,7.684197474827057,-2.489032805682047
2.6857248842463535,1.3436884861877574,-2.5585237542227173
-10.629355317582512,26.76848014112829,4.4531004343638045
16.003183176652023,9.539015828480766,9.23495461831471
-30.617566191175435,31.531747362812176,-2.429587414529773
-18.03382176918321,-52.00816990639472,0.33776261851771405
8.827648528780417,-29.358175801624146,0.18810917677992786
21.071271182103676,-38.505774456115965,-2.426445199946461
-5.712069445063167,3.9394228163851785,-2.5308712442525954
2.4958569366439156,15.274339632850731,-2.392927118074398
12.200565163249152,-31.859743981430025,-2.7271123408467206
-15.179987483831816,-22.59906216482324,-2.850105513989293
-23.779076807834304,-4.367397206010599,-0.4450916125736448
2.969305244053861,-30.920012011538173,-0.5718514884681914
19.388088421462022,7.424593126509687,0.38220839525056516
-37.9005338802892,11.597919261067451,4.641840501497257
8.325516764242739,-21.740700457128536,-2.726439628139713
19.58001330979006,7.2238451941191,10.027980979996286
-2.325050849481012,21.44246254058664,0.13234216708197824
3.9386563007333177,-1.642699399834255,-2.5935591970885663
-40.53196871341776,15.74846458928132,-2.403772057479552
19.1226087024055,-37.07751889106467,1.2803031354260734
30.020572480183485,-7.206735253475156,-2.4679214553669944
1.584290346552279,-16.497554989759706,-2.771121540357946
-15.844959535450995,-17.831571481120204,-2.793663180597549
-24.46438215599079,10.557662295251767,-2.459348041506432
28.14258984003021,-12.556884343574499,-2.463397791078759
-2.0478992964958165,-6.998065154610563,-2.6595409167772948
4.220911223657861,-14.688835783583325,-2.7486014060076918
-24.735606224391645,0.06026906896850644,8.340249108963835
6.94302878873575,-28.00747522419728,7.416313412857698
-13.04918872553119,-17.064403321208463,-2.7834686566210447
39.72757352491212,-17.725964413324874,8.376080333946852
12.572228060451831,7.286333236510671,-2.429627915774378
-13.404370561285763,28.52074835240003,9.348792690120991
5.280907601414265,16.529611002803435,0.5325411093273498
6.338768113740168,-11.58350501058525,-2.7108601342547907
-34.42012970426133,11.46396823616034,-2.4523837829814177
-5.0601059704738685,19.389939406847553,-2.346877210681003
-1.1271872864734909,-21.85761190377064,-2.835904406573126
6.918582154111156,11.47943450979991,-2.4104737276092623
33.291245079624105,-12.003377707675302,10.027656719236573
-16.092932816019683,30.285022703355867,5.734251710302705
29.538251980773047,4.678939787533694,-2.390627061216144
-24.081934335030915,3.3304972127208,-2.5451501260135174
8.778201450469549,14.168704847082562,13.508452232338268
9.494696474828448,13.767084202904133,5.868332144871219
-11.408216335707312,-42.85949133258324,7.41573150619707
-8.919109316651582,23.29076854790812,-2.301965188695032
-23.967568758740548,-0.5299413687435993,-0.7357263669278978
-11.709850754649635,-21.153220392004197,-2.8315815663141257
-31.486559831067883,5.941751152445084,10.367712837155239
-8.455404454990394,9.609430287612486,-2.464491983774625
-23.15546410361785,34.83805790911133,6.467665885370564
18.840805067375975,-9.54127236582893,-2.473321240620646
42.07612950473299,4.040647589052401,10.31279104921377
-25.500698641252292,-6.654803542103209,1.7815230167531402
4.5412713137195935,-28.669147813165655,3.7610425098670937
14.03373808490237,-21.686820102018583,-2.7043122028064523
16.530196558117108,-35.171631080642484,5.521216395478534
14.884002836150273,-25.6816524902867,-2.739730202919162
33.402468869359986,-12.043480177711663,2.83833551796802
2.9688527782998126,-30.915300388649953,7.982342878693084
13.831993861435576,0.8159630284969013,-2.491924855718113
12.252602174049837,-31.995629968635164,8.805807801613726
-1.8720091349561956,-29.303967644111548,8.320334563763168
-8.24783294682607,-38.496542443186776,8.587460088449212
16.040897705651492,9.56149632408707,3.358474756343371
0.5271130426363883,19.53227813610053,8.805058222311171
-6.918807210165775,-36.664180574587164,3.4438175741683783
-32.54123779500331,40.862678195741516,10.724174132384183
45.81515380732613,10.762528900947519,7.276430393755439
-9.936138688899145,-1.9512654674799457,-2.6025440654490435
-15.095523818224011,18.48561203430711,-2.498562365921009
12.320583968358111,11.963380615247209,3.306553993569023
38.6435485760021,-2.468644410885294,3.0953310730915233
-11.774669499029892,12.427816349914757,-2.4322460792230616
43.79898494828258,6.93787883797264,2.9976307486640823
13.409965600722078,11.227799577023683,7.370533472376207
20.472115308552787,6.7077931920161955,2.5229814852002064
-1.0749891612247773,-0.5378252132923502,-2.5823402189060514
8.278075382694894,14.530181421575017,-2.3758223246796546
-26.644893764882987,37.053303669286414,11.134764200441982
33.33383617956768,-12.018734209313656,7.274638695513302
38.69469714264035,-2.471911906439124,0.2379146478436785
-34.52117777124056,-36.98029678296701,-3.4197116643681316
-8.969987607751406,-39.494780339965324,5.2477553764379286
35.27582582531667,-8.468310780501318,7.447843136616763
7.490462528809712,-4.027231254806139,-2.5229165413132826
-20.156044587723194,32.89035803595855,7.919436319475067
-29.18333559088277,4.036013739226319,-1.6285953411687424
6.413367376659071,-1.6230818646309744,-2.5053811839437548
42.52621819381676,4.611206364455352,2.891530460633028
-13.788665119025882,25.948659635425845,-2.3489128713506604
13.92025934920545,-17.479945961833884,-2.6169640322326884
-16.125811666545243,30.34689686551204,0.6326605437686308
-20.195065684754766,32.954032128697264,3.0895360201828943
-16.796627470479713,-8.662805501677292,-2.6849887937199823
45.617776380451275,10.127124154719809,-0.8602621513443285
38.78325827446952,-16.17537307818057,-0.2578422772539644
-4.1660960377122,-8.483352715466463,-2.678016059079432
-0.9579223255413165,20.518964342657046,5.2794868917066715
-10.649054828815428,26.818090485262328,-0.17705442500556356
-4.835564647509343,-3.5680694637700383,-2.6198178346610046
0.526535749105681,19.510886410045813,11.536442067663156
42.14977464479104,4.047719866401189,6.546871863206293
43.19568082066245,-18.64119877666165,11.47818437137825
-32.12245896789341,6.4709579127330725,13.337885186797314
17.39572263938543,-17.48070012122542,-2.5818215102430826
40.55857442126795,0.8967812571835359,-0.7468597232042643
6.412138545481867,-16.74423190229549,-2.772205639373815
20.862663875771606,1.745386450401,-2.4518373319999434
-0.7802599865874857,16.71338731325993,-2.3770683769395595
-2.7359663579602445,-30.89045284803398,3.246602061478072
14.221147917235736,10.76552644728054,-0.3283656568967974
5.925576175788452,-26.691843092144452,-0.1677684939299242
-35.50101769298186,9.449558951517762,10.409627123981672
-17.63100473947017,31.300661022597275,2.8716984199660183
-15.478341582702173,-1.1038392178972605,-2.5945892542524973
-30.989244127489453,39.90915425608192,4.663710816893432
10.650951182414738,-7.738078635776441,-2.53483191705636
-16.532581114038898,-13.165819695420451,-2.7384394472629934
-28.050003946863793,38.01428442613244,4.360498850097969
-6.882653163977389,-13.590925993609927,-2.739798225795932
33.020211816830326,-12.829814416484869,0.21736848988659863
-6.554715458490507,-7.376533652545569,-2.6657683358315487
3.9381425460980672,-29.53556160678932,-2.3818674286305397
14.316923759990434,-4.381113109374493,-2.5033977824235594
-3.125225761393298,-27.567800548217004,-2.9045778819417483
-12.328403780706852,-44.13054144762707,5.366173231200861
-21.521768699522976,-7.641511613256633,-2.6746532663695843
16.502239261050264,4.742001880795918,-2.4393600559634225
10.731500479134997,-3.869313187688392,-2.4882687244727584
-1.0707983457018535,11.150452711905825,-2.4433365204210022
-20.774814484242448,5.529780466392174,-2.517728373810285
-9.502116805407702,20.21784469349593,-2.3387330809999525
-3.9763260390180744,-11.028299525790654,-2.708208976650113
43.94875958447968,-18.966191707993907,0.2937093690897732
6.725300053993773,15.58397171963013,2.199257722849083
43.554671899246806,-18.796122230298657,6.146568427092211
-5.169537573766768,13.499386413565997,-2.4169721549956327
-4.6342808531417035,-33.50924503680253,6.94489041604777
19.885482991916977,-13.357252647285284,-2.507879500053854
9.69199173342978,13.690591979239262,-0.5147813375141489
-2.3096497603194615,-30.30453389360935,-2.805208989969692
-16.043335429077544,30.19168620548181,13.42994626965169
11.646236785958232,-16.622268622740673,-2.629821779345045
10.195328069438007,13.332414284769703,3.660911901573488
-26.543578485372674,1.6956687231747334,2.1261288443846564
-33.91275798639425,8.141092868380401,1.498907620134665
45.90210187838186,10.782954045247028,3.187347291013285
-11.108914812051319,27.00521294153336,13.592349525644838
37.29457244336423,-4.692126226594354,10.154274327578685
35.2374836649768,-8.459106365802095,9.789590132656025
43.98328515060973,7.521477394281563,10.308155233237247
-1.9868731730230873,-19.681333845090276,-2.810352495085439
37.1080740044486,-5.131993772671131,7.212843475754922
-11.147273573045954,-29.76685380393625,-2.933803130822526
-7.413873352763156,24.656373274465686,9.034565703965463
-24.319998149415643,-5.086702866835284,-2.601172135044048
18.02102419337283,-22.068108779198692,-2.6297436258593496
9.989975558694493,13.401553977411,11.619464488206376
-22.229449804563007,8.324620397638023,-2.4850481729972764
17.13599813335752,8.837834807450287,5.463303689668457
34.9355520823568,-30.28438671983661,-2.5558253831637265
4.831416349370171,-28.252635996383802,6.251949643665879
40.41779833787018,0.8936685897672813,6.759606236244686
1.5390013515437335,-32.96583972795689,-1.012798610280712
-6.250627696042944,23.951927684566996,3.207444864622578
-15.265962136441193,-27.577145800932445,-2.90933998912081
-21.163671683959485,33.601946001170084,0.24366888504169343
-2.735833721814864,-30.888955318437933,6.366294473929256
-16.664316518498644,12.422150073249291,-2.434186629726594
8.992316662544807,14.12416415302975,1.7529163501568248
-19.73081388416622,-12.42715130508403,-2.73088008528523
35.60990492690648,-8.087661284808599,0.6722684948653652
39.073208097288884,-1.5344922612455036,7.529008157736248
-18.93611519770084,-24.7627276964897,-2.8772756942110163
-7.267042446344914,2.1266122541985912,-2.553025668563346
-20.01654529599751,-1.4274815933272407,-2.6001766813646876
-37.831426555493884,11.57677177074829,0.24275915668122577
11.922639674488027,12.159502895881252,10.930758085340493
-7.743165759774877,15.013504653190086,-2.399951527122063
7.066798451076076,-6.279487796184624,-2.5538346917296404
-6.627319472404152,24.17706985622526,5.468062729848364
-6.605860989350708,24.0987873400508,13.554023495308446
-22.779207743320462,-3.037279885673687,5.906480266138052
10.348073240440325,-20.68342334666019,-2.708558459900119
-5.961221989137116,-1.555673503956402,-2.596316770937263
-13.039834423265047,-44.5596182661362,0.8547399333642306
-21.124927009256275,-15.991744248675575,-2.773805845357793
-8.24927486085305,-38.50327253882486,-2.6618037409922914
35.328104094847966,-8.48086069600578,4.254948434077735
38.76391586117358,-1.9990378329073246,10.485698329454564
-38.03831855052975,11.640082663987053,13.41263251597779
-17.599335618850144,31.244438225084664,7.362054160762507
-3.107711909844047,0.6260377822756372,-2.569277764646736
-19.193487990540333,3.866461565394886,-2.5369034997320954
40.48386245300969,0.8951293181354474,3.2369337803373828
-15.14030591622948,5.88267925692181,-2.5113730355252857
-14.502188619153086,14.573031290973693,-2.407779128198281
6.27858704623093,15.589788565499493,-2.3877265437595185
-21.473409755433035,14.809490877120368,-2.407637638344736
-25.042549777359742,0.3683617112898723,3.8723154547583665
-14.291845161793617,-12.89008515220788,-2.734301893092584
-31.019379790831756,19.74885612576714,-2.4857436833765134
-7.4393191131610115,24.740998427441674,0.47562316539721533
-13.438951535532938,28.594326985561146,2.9162020887593036
10.858992642431561,-0.6936990127048147,-2.5136690776048214
37.277985289402665,-24.381466598873057,-2.462331039581804
3.3952916357996807,12.153727353976103,-2.4296942362140888
20.487792483501316,-36.372371121412456,-2.8219153541435094
0.6869107260213274,-31.066795362786287,0.5720747959358067
-2.601702135384078,21.525618577295102,12.107728923062202
38.23724253655277,-3.386671270759096,-2.12201071796616
-28.19129482206957,23.25117998171957,-2.470205151980614
25.713804334022985,4.397256761450707,-2.407827385059854
-2.7361286640934277,-30.892285366894985,-0.5709486576795638
-0.1215417680644927,-8.262845142415436,-2.6738442671025804
-7.4243999351262,18.69726773499376,-2.356020496403206
2.732863555147634,18.119189475543184,7.458707251071921
-24.323309852099488,-7.969656763561252,-2.67962894800589
-36.99739426721291,10.82684085072941,2.6058309394746018
-3.830305869949209,22.398449993363638,2.097379313319094
38.47843609912539,-20.08311055727558,-2.3993610205726914
-31.888641868066298,15.660217014478945,-2.4015103820395467
-24.300927435186722,35.60577339508922,2.9140125889973816
-25.90948332383685,-15.016043980076097,-2.7640352983981105
-5.309582201977935,-19.00608883371078,-2.8035950769105895
34.49795016231461,-13.893606196171595,3.8935091122824663
42.282900250465744,4.060504161533423,-0.26064146576683694
33.271502075380155,-12.459715704700526,-2.4016145444089028
43.72095000100787,6.92551788919817,6.844096048400839
-17.543505124895503,7.827700509669324,-2.4891626320173343
3.3387843121127143,17.69290387785877,11.871521004535316
-38.933195617231796,12.438442056955692,11.581221000360157
-11.408999505298796,-42.862433619907605,2.9982924308447307
43.55908040923659,6.352950046892483,-1.350938145792676
6.695297756291245,15.514449920577839,13.354563041996714
-13.670673311607597,-5.4284159314823395,-2.6453265086479094
6.714591139501176,15.559156853488737,6.180993121451338
-25.5011640063168,-6.654924986347666,4.07485143604356
-10.792186363135562,26.23526201902447,-2.2676655427576335
-8.438437754955416,-17.729680662269633,-2.789614101618575
15.764032815894119,-7.502888078919763,-2.48033617070048
10.766855371241551,-28.115849636713705,-2.7788566522040274
3.0904519452886263,-19.510092550800564,-2.806370957129038
-6.919251331410902,-36.666534064290474,-0.6869392204459805
49.99584430280243,-23.047318250849646,8.511796206564336
34.29380083110085,6.298589770477906,-2.356962145662757
-15.876747246723692,10.384101492866545,-2.458122283042753
35.51731502719741,-5.356971179397379,-2.428048760599508
21.109117696358858,-38.57493541604409,2.430803384702167
45.739084478950836,10.744659303727397,10.85389682307945
34.60942587600715,-9.212237601801673,-2.4209819853000147
15.152420757200945,10.071208212628818,11.365483084217283
-27.325097361272363,2.420182943779263,-2.531969314284383
-21.05741428205096,27.816624177743336,-2.3583598016880023
-25.736475070941466,1.0107289304160714,-0.15804074809568333
8.800103138316418,10.151648912784166,-2.41619372991375
13.80617552560149,10.994630324181097,4.536148274801664
4.2844954549901395,-12.553459230345407,-2.7231822194185167
32.93363460820246,-14.21258833072446,8.286281355732697
-11.409772420890954,-42.865337384014815,-1.3613093410539991
-10.644484680572631,-7.457958469330405,-2.668303416381852
32.84580692576875,-10.939624299017435,12.148023135294007
12.69810034095179,11.738423406100967,0.9559238326567322
-19.88741048941209,-4.159595215793767,-2.6326186968129894
16.130015885923395,9.085699063260437,-2.3987585355769863
-1.2190363961382795,20.66478916246054,8.131412507515746
14.953605155036817,-33.95788478285943,1.5946757826254883
-24.994700007976515,26.38116861334729,-2.4566034436931066
-3.0254866547893595,-15.018807452779857,-2.7553015802899314
-31.73377450854608,-13.054064726077575,-2.742933801937547
-17.2476120124657,29.75994985136716,-2.325144196219528
-26.694499523793702,37.12228713999879,6.496002824047667
-6.9183025354758385,-36.66150619974174,8.137779926531511
-22.065515029996213,34.09860238368872,10.97191760226391
-16.477691509262968,-4.300109630884299,-2.6329835333230656
-28.872042253887205,3.6324660077691426,13.113209833829584
40.62535047583305,1.3972099503686766,10.447619580957662
-2.997362770129784,-4.5828106688654175,-2.631181386218391
5.899141133360898,-18.779924711202963,-2.7966115082062086
37.16464819651277,-5.139817902841088,3.9278243900452487
-30.75559959022201,-17.323983086139165,-2.821691423212612
-1.4457704857673195,-2.6117072166395965,-2.6071457690114688
11.673776561351708,10.271837079733867,-2.40415411404684
-4.473642679936716,22.780464705213895,6.271515417835985
17.311314115842162,8.660981470841916,13.455827642151755
20.307427454075683,4.24744479066411,-2.4297401028723127
-39.78348329819622,13.250286758735632,3.8703110946709347
-0.7081906311404064,-18.032857253147373,-2.7902582454757376
11.02038079871446,-31.038111113923595,4.679311044576393
-24.347298687599558,35.673716658154454,-1.856229638574686
16.515463050360392,-35.14028230039531,3.1037647649443483
1.6771761519532098,13.330751236993391,-2.4163547447072045
-27.48142999490234,2.434029319821955,11.229913984418467
-8.07343493147663,6.3322823889923745,-2.5033189263526827
-18.206871067782316,-0.4025679146400752,-2.587294697074875
-20.110912911983885,32.81671278441288,13.505683522736748
-6.0207035854166655,9.559180457309592,-2.464156872172335
-11.905945341825094,-11.006136644039387,-2.710983147316288
-12.177079858766565,-15.139021603526464,-2.760237084084292
-6.6635291580387905,-5.306541236650433,-2.6411927694515493
8.791046001687535,14.189436959022322,9.866087896093788
38.478082179285224,-16.04809297295543,4.882533564777004
-18.859556046139758,-8.58278153373566,-2.684827396834239
40.90451811062427,8.55547472748585,-2.3101121188698377
-13.415459671076656,28.544342873929573,7.286048508637466
-36.33075891941156,10.149439615409605,13.236558611711136
7.375226970419438,-28.261306166832814,-0.8963652345913662
-25.501995396607157,-6.655141950562138,8.171959547132671
-39.72387939434673,13.230435082802027,0.25690949825470977
14.979113137291352,-34.015810421089284,6.214555470500129
50.891124242574804,-22.70700617323875,-0.34194176864162834
-9.263954659956303,-4.353934882446893,-2.630860151267459
18.894115148945847,-2.6130292095703225,-2.471455312649289
6.882414086835587,15.424921617134498,9.432037644107275
36.750634312958034,-6.005125444427556,0.6855464490535909
14.776774948133875,-2.0436069251369564,-2.4942289540256226
9.923840081823272,6.595979700826108,-2.4463292008007
-37.979842792962764,11.622188533072332,9.690311980508524
3.5035494808917407,-6.045211173451944,-2.6460824691993032
19.1081485119924,-37.04948150393022,-0.7674468322072115
20.394644394022404,6.682409450999014,11.984445610423737
-17.20696363084179,-16.302647555326907,-2.776002318509571
-28.301535294378194,3.208405655513684,4.76239621575453
8.15266663803267,-0.11992110472219701,-2.528087714428948
12.409648515977292,3.23849060224516,-2.4693923486592033
50.57289926561258,-22.565018024540812,3.7434788792315623
24.00745461998131,-33.38559028271236,-2.7797061005130095
-27.217624187501155,-30.63011995453979,-3.2754540910826524
-0.7011368436033105,20.386291978086845,1.1276106080770956
11.758046369810844,12.289761895728608,7.917092329339561
-31.426457973760204,5.930409478987013,5.75161056005032
-7.440627853204666,-26.634343075790337,-2.8951299774048733
0.6877698656648625,-31.105651526306048,5.202212012688076
23.312268965652375,-22.303665588420444,-2.5790125369228516
21.69315990017342,-9.361734740840152,-2.4735268206171157
8.338028069400313,-29.016465540393735,3.1606840275750856
0.4211000619351471,3.7145484533234097,-2.5311960050359756
-8.121873236158157,-10.355099641135627,-2.701791099369966
-11.203152281360019,-25.108594691409188,-2.8784264905636365
-19.962428573599347,12.031228712888073,-2.4400991037118773
-17.659045937811214,31.350443100074433,-1.104255237233105
-30.90270303103316,39.79770326509434,11.639956833053063
-8.809784727213161,11.637633546137518,-2.4405074658452124
-5.721338526529483,-35.013893034363875,-2.8360113433463865
19.90521246363758,-7.1769554722603255,-2.4780700992734284
10.462342712490251,-30.65438954829047,8.750084529165305
23.25528440536437,-2.0597197487159566,-2.4441420351505165
-36.21938654715673,10.118326387922874,5.814392992386289
-2.7764614881390917,7.525514657503975,-2.4870992818864086
-9.73509934716733,-40.552794750229815,0.7677814882136952
-2.609685597969706,21.59167109276454,4.465007565870518
0.5292032382848284,19.609730749604466,-1.0844110408943899
-4.634586256746976,-33.51145332856742,2.704288673166383
2.27565238423637,-31.909832841235016,2.9527456043559037
9.573539240835649,3.399177470503861,-2.478573273174192
-23.17480115817286,34.86715106066141,4.383014302927725
-5.838390355608941,-11.888618080059214,-2.7191535940248115
-30.813884588622006,5.4240883453548,2.5010276997816416
2.31726758502904,18.41840983106965,3.5742624717999267
-14.092753832739739,29.053818564883354,-1.7850490906879675
0.2161571538927705,-6.284996848494597,-2.6501934651749033
-25.812756429861874,1.0137246699685853,6.978499171879194
5.9246637426729,-26.68773302405489,8.476247713082882
1.1361079677482142,5.63974948829097,-2.5080267647360674
34.92518386888252,-26.707368959833676,-1.3492983072780138
