8.70478185436371,-8.959422383799831,-2.564548448765073
1.7881939496145238,15.815269289646952,-2.26120279172299
-20.117985902007167,6.4208154157109405,1.9491622383995328
32.140415043987275,1.9054691006624696,1.7798261546954004
23.441101855325414,-6.541134537071023,1.0459372320218012
14.689581357135518,-2.02715080751904,-2.479410592354918
3.5824534429037413,28.5422184192357,3.368909167189965
12.990980580029374,37.50058401088392,-1.7056644519556998
-6.246020876742505,-31.052965607399347,-2.9235815469454596
-37.47929532453881,-9.79256456539944,1.1888238329284406
18.62599919284308,12.060817018694715,-2.3230743557954505
29.40374395186056,20.080707660904316,-2.406914859159727
-5.377216962569061,-14.92739708877277,-2.6528955105386847
7.426326195725239,19.84846207351455,-2.2186316660372962
-29.262463419765496,-11.215804071801251,-2.505073690398481
-18.045374517668918,-17.53249728918137,-2.634013999837597
-12.357908951292911,-27.71852310844943,-2.80115963351588
21.863266833761855,17.864455864639012,-2.2569054923330776
12.90807822147997,-17.04103217335528,8.701731099147633
28.38806390573484,28.969057898854196,-2.242119955306896
12.273225438464546,-20.576499761790878,-2.8059021675084495
25.22701300628384,6.26162093886302,-2.3990979847003318
-8.920360100986102,-41.69533208653186,-2.8822955564635993
-4.628949235570674,20.822256934754236,4.652646211975653
18.184570757348055,42.171621950440745,4.238878943332681
3.08731371119583,3.93859718492124,-2.4045919642358844
-17.06348572044986,2.141709599067714,-2.443241694381839
17.704297711604262,22.586009602802257,-2.2940136392972503
-10.19476981885845,12.476784882078372,-2.28907336903142
13.988764435294607,-25.545335006105773,1.9687684396272698
8.90632854671419,33.49974284371763,4.059562727083865
12.458147507376879,10.699999208829043,-2.3331423393624724
19.275820981380846,-10.663177062252963,3.129622615778845
-44.48664093737038,-16.427738293367888,3.79082628559785
5.6031636741247155,26.19017253597147,-2.140929594812083
9.59473289515715,4.08861226317048,-2.4093508080181616
-6.695858082059267,-3.7742275550588533,-2.487008221026258
3.0683952440579847,-6.523707444703046,-2.5297336643389565
-16.215207718893804,-7.626747009702982,-2.5458027806775956
-32.43605238019905,-21.003184232752243,-2.612139236896252
-30.022501035820316,-2.8920162161884537,3.5323185578888783
0.47300120735533246,-13.636400783849925,-2.627150248456773
-49.62699401922995,-21.147596139307456,0.9931186715118749
2.896994734170794,-23.909810887941397,-2.8206432492859372
-41.698954373560575,-13.67644073328452,-0.807906695292749
27.708368245297674,-2.4459263558596893,2.9120877378964494
-17.460672699915154,-41.89962598975518,-3.068415896715887
20.516144083453806,1.7224652178293705,-2.411172736811591
-26.08125329667043,-6.134883700736851,-2.472990198746627
23.969312654048053,39.79674711690463,-1.9966500201198274
-40.972094871294225,-21.14646256679818,-2.548790506566902
-36.403234824120034,-9.03568160686635,9.151014925102771
-15.427589986392174,-48.33841463324781,2.8049180658691375
-0.9046547297629386,-33.89132754581647,1.8741634188799248
21.75255413721506,-8.444476940293248,9.165850118467606
5.734933191984929,-27.37911078616426,4.325026890747468
13.062537874462453,-12.800559867913021,-2.5983178079497375
17.067695212475755,40.95661479945986,9.678158939113306
-2.040030998562913,-26.871076353086565,-2.821246526560397
31.79140988193319,13.088693929667281,-2.3240364366046817
-9.799947604660792,15.980881694257931,4.81816239434991
-45.300658599077536,-17.362971253733356,9.340980068040643
38.320382436993874,21.599896763286203,-2.4316748928271563
29.934152903619623,-0.431519497896847,7.694415293716177
10.702838110985004,35.01227499360764,9.40984310799884
-23.072787452197765,-24.730939095855277,-2.7036695032889173
-34.079288385580206,-6.702910467490165,4.067615121084842
-6.033634289922056,4.2687354967834485,-2.3914570094509697
-7.438004257403444,-25.44481497828181,-2.775315011593118
-2.9731901498441657,18.73420158379792,-2.2214884642989237
-35.92856965061764,-31.632527936502065,-2.6461968465184627
42.28472558556875,11.048124086681339,-2.4159481578973745
16.375103360675666,27.958576925648547,-2.1902387484850774
10.609026516149987,-22.55582470950792,4.799329315873652
20.70514734238222,-3.6384032925536913,-2.4620084806586178
-11.208497543927443,-44.34347823380757,8.806477672610345
1.1966516832790992,10.583510038744937,-2.3231946996924306
-28.522466677287277,-1.3399604323892942,-1.2271875439107083
30.034203989118133,4.389401357095521,-2.4263365988112064
-1.134432634753995,24.147591406637503,2.831130501761176
-16.40246797741715,9.87909594957122,2.481021884109484
6.716960429384038,14.582162391187412,-2.280918124430235
-23.774018156703264,2.983976646319081,2.508446313468662
23.89080589239684,31.260995025045172,-2.1749664115013627
-18.25833598996411,-23.29281616916233,-2.7316979170081606
-3.9226744348084712,21.322449508119885,9.76980704855533
14.001683835638008,-25.56892754077006,8.64807724351923
3.1654220084595943,27.9958454674088,8.3581250065777
-23.29126618654143,3.2141766269774426,9.57039424434369
-22.82011161858197,-16.420029719822868,-2.594875268054631
-13.516388140687496,-15.220049857359218,-2.637497071282064
-25.027653238072116,-33.59519159385049,-2.831873594914561
-1.3463477991814372,-34.54118781700686,8.433619123416769
-11.247194217431042,14.475794301241947,9.654304173678964
-8.998305993953212,0.4613884106019042,-2.434018721315019
-30.091598845190873,-25.20991710274451,-2.6536298408893892
-4.242461269282022,14.094169702879379,-2.2757190006583063
10.63591436681103,-4.58624848718555,-2.526405300695376
-1.7743750136335144,-34.60505065541286,-2.7698444986870516
-12.68475724603827,13.380512510748597,1.7017737279522325
17.10871711754277,-28.683373857891773,0.20493176226865545
16.327700625740405,40.57622021681649,-0.2683771332166681
-17.14908321219189,6.900719071377031,-2.3951991239801393
4.808733555388988,-11.680036243025157,-2.5931715813891585
2.900220277510733,-30.107668760042316,1.672041260818229
-16.079833676262023,9.955703428181783,9.665577645107367
-21.948903603779154,5.83539245800738,-2.3776682493597665
1.9250217250099029,-1.8864141160652135,-2.4731061686021922
-28.534500611290955,-1.6916897041695433,9.638009330188847
4.8638788383877,-28.392267355846226,8.931542640024468
-1.4472664786864067,5.273684492207569,-2.38405361416849
-3.6984577649566317,-36.74374848735968,4.324936805814162
-6.878471709686878,-19.855830329862435,-2.72276804653495
13.979760075394456,-25.5288918533721,-2.6864708714797394
1.8678173968686218,-19.390122855575697,-2.7675192897864687
16.2132470205523,-13.701691222918349,4.903797717608715
11.04794891964642,29.528031673043568,-2.1311677831185754
5.113447099616984,-27.795122793398146,-1.9104207797859378
-10.441913468719429,-6.403289057738307,-2.514687165564191
16.69137655548938,-13.083723284976005,0.1301332464460691
-2.127300640452792,-4.07874332455291,-2.4952520416052164
-28.643324952592465,-15.68524058540007,-2.6104742726323327
21.16422544267219,8.111887317597027,-2.372871669301241
-6.587902958557256,-10.640371583296721,-2.5692567539284537
5.986286723630854,-20.809338942874035,-2.805664274566661
-21.37124657312038,5.123740006553086,5.936888212737526
-7.687866815783712,-40.8053622852529,7.467706157648069
-9.463297420491513,-37.43905207107474,-3.0868748305485223
1.7106543688608433,26.902366048425037,-0.16540631117913376
-17.98498488867913,8.284397648275723,6.139582944687858
-8.157378150212297,7.993776430010556,-2.3447554975936953
10.111755148002855,-16.044164260003267,-2.6943388119493106
-12.77269635446535,-45.77280508684247,4.975056141513927
10.746899001842209,-0.15492325692845355,-2.482918615111703
23.058098403712254,-7.048587799768833,5.25919674423258
10.174457792650202,34.80600266941737,0.22250742544762542
-11.115760097185943,-43.97658686991835,0.2783269864203677
12.862296384600482,-8.183624841984177,-2.549003166221822
25.175834191181078,-4.743211416309436,-2.3646015498762227
-16.074457721429617,-11.868325185954019,-2.5890001909943825
21.481061034287478,-8.33908162751026,-2.4123790288189313
-35.82052221523839,-10.782272481972377,-2.52870772768584
-9.310493190006222,-16.353510783128147,-2.673506648204072
17.805814686541176,16.879954088849882,-2.264596936328153
13.359790533453493,20.99773496408169,-2.2971091192283524
30.01662145573993,-0.0643190969459902,-1.290054144431971
-16.06010059627098,-31.736425482400932,-2.84323589761791
3.3881245216729674,20.773247468651967,-2.2035016574323953
-7.025351227746882,-39.97933175802235,2.2439006085908915
-11.241265915263282,16.460341450550935,-2.3343796727279096
-3.732088749968642,21.785588232288408,0.6783228077195003
20.130570431960297,26.34074651810323,-2.241023510013469
-20.802657235967132,0.5552813543439389,-2.4371419371952006
-25.250754881722713,-10.395871191851112,-2.520430036379001
28.291195767376532,8.895948419959415,-2.3706693444120885
16.110516768179323,-21.82008131753632,-2.8395397233696684
-26.903781190890353,0.05764895670162576,2.4832145497717857
22.24797732213783,-30.13265690387989,-2.994103164946744
33.857990981099476,3.6813553726167085,-1.463721289453849
-40.60360547270528,-12.767490738800362,2.877208456401566
-12.560736048028106,9.119930524174059,-2.3999619999596127
33.622777782273566,3.238824722284818,5.222572097670937
13.576230664196908,37.688229339442,9.773412716206465
-20.191362978071528,-7.456135590392883,-2.520760070585499
-12.749028435474017,1.6001839850528548,-2.4739753465862737
6.22632316680574,30.95503568989162,5.279418923426075
-10.941313806495367,-23.75300798279189,-2.7378517195162657
-17.36588212688212,-1.8881800607635975,-2.4817233551563693
10.557135352547695,14.171084339283107,-2.289703213826047
-42.129035386788225,-17.344749785480783,-2.518523938762508
11.568692420263778,-23.106196277508676,0.15855725395308376
-37.280047512094484,-9.740505233680944,5.474201589462909
6.680098755954051,-5.236270558552066,-2.5179692982321353
14.477764407754576,1.9347303284402828,-2.4422367251100847
29.639218604212225,16.230597367442062,-2.284282361113649
1.3236686098495163,-9.905133550467763,-2.5684286548178745
-2.4008501583700808,-17.397562922726777,-2.7153764280104786
15.26031724815491,34.22856228771591,-2.071670671387271
-48.070316894775694,-19.79080724241138,4.155498028041648
16.813892520670702,-5.139807958697221,-2.4978780766249202
12.481737027181975,6.835067106178469,-2.379402353277582
4.434841208260938,29.462173164056633,-0.5485045906512196
-15.524473194304015,-20.31369228310682,-2.6765934088106293
10.892269866024545,-22.4388676476787,8.752419038453661
22.456962811390166,11.590457479579703,-2.332559354268479
-5.940665789223439,-39.46588298716599,-3.1903095910600343
-29.90931186599271,-7.423818800919228,-2.4633969020948188
-7.297202631520088,18.36121350266833,3.553378238265918
-15.462688604508282,-25.67302271127634,-2.766216506302516
1.3532992451146566,26.392948823837138,5.4255626431394335
12.928530078546563,37.320310453937935,2.1833325746931784
-43.24294984841596,-15.368131872491018,7.0955819148869255
15.724701122552448,9.119545308569775,-2.3553390133750547
20.41893535969413,44.32841824818122,2.097542099826468
6.254911116253978,5.644755359637796,-2.3873711778837654
-2.9441534673651133,-12.280137091205725,-2.5925428394232446
9.269007374753953,-12.553942096348521,-2.609193727901614
6.750978090209603,31.55525900227651,1.7838332211906198
9.263143395328626,-22.49944800134085,-2.8495715407438964
8.175425329476658,-24.926564918943388,3.3990723628572113
3.298449420294489,7.649394854101874,-2.3604122500821703
-34.8266189559385,-7.2949167186230754,0.6550671258831822
-20.327198633600556,-20.240271361013093,-2.6476699586543355
19.764377899726245,-10.308266644566897,6.9115592964231505
20.312596054331976,44.097561295001405,6.290860417126727
-5.600455030657915,-0.4010504330015611,-2.4477579939668126
30.186843083261223,-0.06468384490335076,3.9113875786794297
6.57859398859342,2.1576500453063354,-2.429413459966544
13.508757559913114,-16.1246112683802,-1.6815015939240885
-5.954566514523864,-7.224039067989975,-2.529024921066822
25.350418318462523,-4.776103650161129,3.9884532947000513
1.608424640739711,-27.130030868712353,-2.845248279244819
26.656193201040633,22.331828372767664,-2.350678343370877
-10.186187752895762,15.730934692856975,1.2668431800088256
-39.14910806403804,-11.262144678843535,-1.7507827745241737
20.78306277818394,41.06948889903241,-1.978215384232059
-48.45383124410523,-19.948702156624115,-2.252027092298246
13.800498340170783,-16.068098757922467,5.4439150636747975
0.5063078701055556,18.96795020269083,-2.22219625008684
-30.339581929746213,-3.298801249086655,7.0501094621455165
10.5723683280791,18.569944247639626,-2.2370949085242158
-6.061416424403762,20.137044583986246,-2.201596142412997
15.363802355642243,39.57639352414103,2.869794704499193
-0.8086461406315515,13.63980269980793,-2.284612720706425
-46.9818334043731,-18.671748373396287,0.9307315460277952
4.200408043300639,12.125162818727881,-2.3077768938858085
14.943680027547545,-26.511586603739225,5.0885001743536655
16.24898449297467,-28.017890810511027,-2.989470220346123
9.9434934952441,22.30304134080907,-2.253885564684585
-9.292328231091686,-29.115138225668286,-2.82086528301988
16.197637970673238,40.252999510180715,6.164406273889782
-0.4840876818008761,-33.58076461529899,5.192552623769437
9.71514770861939,8.767451859610953,-2.353499026585679
15.303221512052295,12.5042486727869,-2.3144232788815224
-6.899101129974131,11.896021085739974,-2.2993400521544682
-19.939572131735808,-14.722072136389308,-2.5948210875618964
19.608070523737123,-10.226743304020431,-0.4071294303444125
15.331800123920694,-14.6598474312676,8.033435138399017
0.9937724977112612,1.368707141184197,-2.433227249720412
-13.399276922307859,12.81202166625338,-1.4819319236571613
27.287454622877,-2.7466304498192256,-0.5048963258269525
-5.220492238809442,-23.01708659846245,-2.7640790851882833
6.072610841448433,22.841162945144884,-2.1814666310638966
19.96745424594322,4.956140846759931,-2.4094186836746503
-13.574445366443754,-46.43708699657731,0.8906769008776109
-6.494651281678347,19.010887909675084,6.773727415302887
27.904834565887665,-2.463269208651152,9.445395372211658
-8.176172974268727,15.375702616484626,-2.256426444118575
20.490301952906233,20.909659271227454,-2.3401998960114785
-13.708381371152013,12.173928806381006,9.655399603390158
17.204065322102917,0.17426708828641493,-2.444318582393279
-0.34483093213175364,-23.92063834574855,-2.801723234675487
10.746611985265044,35.15547279852028,6.1465876079608375
9.33825719009815,-19.237488579143523,-2.7707999284206553
-5.860073608044063,-38.93048145054437,5.593188906440908
-34.5420804556061,-7.235316196798292,7.245351618126213
24.23864768104846,15.276287782746701,-2.2902599903099192
31.488616444019375,27.044805083470262,-2.2945689377856286
-2.2198095435363503,23.044211836397572,5.648258494363438
-30.599714543847206,-3.3270852839264093,0.1888664463382077
25.5620377744708,2.779342257743832,-2.373271745880753
-0.17813689475458538,-6.67359120501624,-2.5282572163822725
27.803878429675496,-2.45435741448987,6.088191483701945
6.004609028876761,-27.01034416865947,1.1891867792366666
-23.657842090891894,2.969394901451329,6.441134337328335
-12.914620593355385,-8.362551411586873,-2.5725261833802797
-23.284148362201737,-1.3804185533601583,-2.4419132946006816
-9.709143482712363,-2.922532227981765,-2.4737847606913914
-35.23175069708996,-6.929583384007846,-2.4272192208621695
-15.034075485696967,4.595738954441568,-2.4306389545968115
-15.650523151482066,-4.502234271679115,-2.5179049101167426
0.7216563894186634,-32.2101009848443,-0.197690783353644
-18.114570376447396,8.344088424596244,0.3671652576464562
8.816482437552025,25.450214346264133,-2.153017790761924
14.835106489138283,23.960742366001256,-2.2527345195496937
2.7081663589634006,-15.808572923515845,-2.6817371154448
-25.989148124451933,0.6937233645247814,9.482723621226285
-24.152542057891605,-13.613966819854936,-2.5590232734438847
21.36486344321053,-8.597131333243139,2.1256345711681046
-32.50315983315548,-5.15837700488527,1.8192455583552811
4.003443084863071,0.43529153037027835,-2.4474246909906405
-8.218041727792492,-13.273270450525862,-2.6102647525677383
-43.58038720082463,-15.488053888650855,0.8514689367186373
-15.371349104490994,-48.162198187835614,-0.9307222329774
23.14851015664289,-1.7574166985192456,-2.4304070672991562
8.29724871286697,32.82588645423232,7.385200765363418
-23.009908907777685,-6.012013210820562,-2.4897903043644543
3.577869256187588,-29.52928298011237,4.59899333963409
-8.947887961348131,-41.82400214765412,0.26243952103961554
5.69902023959927,-8.128931175574953,-2.5515862307511648
-23.044289398886292,3.7585323197404623,-0.4298476339311521
-0.7949065340842206,8.252056855468421,-2.3490802652135807
-11.079499388416526,-43.83313089432863,-3.056213689856868
-38.61521672468776,-11.108558510374278,9.282349854943316
-28.27417341495395,-1.3282958330080474,5.811059859278661
5.922874246430371,-23.862259805911147,-2.879394333543648
-46.65702863102706,-18.542662883134625,6.505392210857656
19.979219666400926,14.751345275326988,-2.292250312494529
15.891979246520211,-11.839162897387718,-2.567758054614398
-9.206064899021593,3.444460365036482,-2.3981229445052277
4.673395153940913,16.747787588354196,-2.2529526792282084
-9.418689730810396,16.24051155750824,7.9117833617936535
-26.313843053765925,0.7023903842258202,-0.4846064240933365
-26.271327286489914,-2.856462803888154,-2.4391247413804185
-15.171341538692053,-43.794551490912,-3.133021000939013
-11.619408874028323,14.220317628946434,6.698048074086043
-3.0128344832275937,22.545316629678553,-2.099422781092838
-16.751221514035503,-14.748248752066683,-2.613796878133211
22.829057446346088,3.9108454433018767,-2.424805429695857
-32.33894213369248,-5.132315021710298,5.8887503647381205
-5.9335527219467625,19.71225986424916,1.1379798235770529
1.1079213632528577,-31.940848165649026,3.345919909840355
17.1165094245201,-28.69643793819134,3.498079381616443
-37.43262017506756,-29.083858226708287,-2.620430786663427
-15.815891945843934,10.337667435366187,5.353897702443416
-19.58959267592094,-39.91959712720141,-3.0058822828211715
19.127760863256146,42.90315486145334,9.044428378032803
7.414053598472885,-25.77249660665786,6.195208791496744
25.550223717388505,-4.489802297061753,1.114920018579437
18.31269822492967,42.46876083793062,-1.4193404428431557
-3.381792589528496,3.07830297404127,-2.40836878749576
4.474849060231455,-3.2490383031242183,-2.4919751424576173
26.59145068038137,38.581215298476614,-2.013832147614751
23.90480067263052,-6.355392327260462,9.367475278505593
-14.700676408475633,11.52329058008187,0.8027738152442379
-24.86372726368608,-22.438313690429982,-2.6771997805584515
24.052517582161556,8.881957725076475,-2.3665680368805866
-39.95384069418616,-23.83119090462676,-2.571677025842698
-8.782274660471396,-8.744718123680004,-2.54436911204352
-2.7046092159059003,-35.62483158200293,0.21922302507984437
-4.182224565987978,-36.98872136052978,-2.9755930331525504
0.7279973845589914,-32.493122235413296,8.779977762963046
-3.6438269948052886,-32.2269881184608,-2.9934921148055538
-13.344633744232787,-22.156372281174036,-2.7077956255127673
-33.58870297778646,-18.39335649859463,-2.5886674938838983
-4.1505900300688525,6.409921187764753,-2.3677383356250603
-14.84030605620251,-0.5147606610697322,-2.4828276620382668
31.892223179293765,1.4982686330987007,6.9640346971978175
-30.104805311429953,-4.399719511026965,-2.4320401817099473
18.24853037605726,42.31994994213716,1.4143670619728874
10.789487515678802,35.29573184437117,2.9503018612471754
-20.26974274017411,3.5618920022899343,-2.4102353729657358
11.284098196503779,-10.527525795463772,-2.5803387370706106
1.0108841994473778,25.934710938425994,9.829197517801216
-13.813826363081493,-18.07531981792869,-2.6642739652813505
-13.662543588100784,-46.73846393485312,7.528780540195111
14.028345228379512,-5.445890953506671,-2.5161172852714953
8.47863652537092,12.301551545820805,-2.3099752608435318
12.322353587276819,-23.875040027178496,6.555003438997889
-42.396683236005494,-14.483893357632226,4.135251686141143
-1.6975300714432222,23.705100521036602,0.14582697183460266
-9.210169778574125,-21.359195286171598,-2.724099815095452
-3.208237342474606,-36.344112115492116,7.024956278004214
1.0202790983563033,26.1757415012065,2.417845671635818
18.392628016537458,8.376810192463907,-2.3669111777329594
13.717229883558728,28.84258051062846,-2.1589618905618195
12.097635094384797,34.92179657995985,-2.043013445291153
-9.70397695142186,-42.78471600434718,6.783075108931545
-1.9030026803310867,11.10853347176767,-2.313792241278354
2.9210895099896677,-30.324315731179063,9.037607131997191
42.6578451149196,7.8477305533115205,-2.3976775278908993
36.23376395085742,23.462300861571283,-2.386234959014647
29.361440565482958,-0.7837393222295359,1.2623423608782027
-13.069246129044654,-5.380678715094224,-2.5418311634815263
-14.31374487510488,11.79840600646865,3.5715550176820705
39.76082876838166,19.30069216691547,-2.443229566470166
1.1941576047785532,5.936921403686099,-2.378779417598951
15.681593730363712,18.556070830223984,-2.2424062637012425
15.988833308597572,-27.569315856103625,8.609498505708828
-19.76597960679327,6.84734555447409,-1.15635981108724
-7.00484799751467,-39.862653542657505,-0.745109844823559
-22.307777036960626,-9.184231431458691,-2.525600417502914
-1.9453441364710424,23.17083688112855,9.79902288463231
41.71099981113221,13.680391401005812,-2.4266136230404545
18.12838081596957,-11.849168713270808,5.283874035256061
-18.654238316791044,-5.119315317632507,-2.506438678844715
-5.605438626828984,16.408019583719742,-2.2466657456492527
12.801134363097292,4.025218020031522,-2.4133382901461005
-18.241157334139928,8.132560332292543,3.3393569792795774
-35.984677963021745,-8.464386730210906,3.4120199246317306
15.637805502957011,15.193355079490837,-2.2825903990629453
32.002570728319405,1.8972968949256237,-2.1671029648983957
-19.356067938352577,-9.990027783166799,-2.550975235441631
9.448970808574607,-23.775490301901897,6.911411158832686
-0.7507193952676812,-1.8014690742770678,-2.469395290081853
-13.487750388627726,-12.475744256702285,-2.6102509087409644
9.884344515622104,-23.19555863132018,2.32722147058882
17.308552728542686,-12.567161490754653,2.771513408560993
3.978671343832498,28.83111418338923,5.975091443433713
-11.65829257906283,14.267905130356842,4.018927750387024
12.316547315260486,-23.86379014899437,3.1450570378108424
22.836871405872593,-6.071469881683202,-2.473859516477447
-4.630288846590343,-26.349693834834067,-2.8008344313226705
3.2290243734160775,-29.697833283387023,-0.9167755889664595
15.425353888937632,-14.391119976274478,2.470641527015513
20.98507878923899,-9.048849260289165,4.691676899760289
1.2756833784276242,-4.434489865094549,-2.502934913829612
8.249253400264791,17.345320984588295,-2.2494055429344293
-41.16959775978457,-13.50282212668296,9.450610195505915
33.26201565290292,10.458984414271924,-2.356976716706267
-7.668321229956895,-40.70161898039968,4.850574794272913
2.930887042702493,23.35104125376071,-2.1722029868737516
7.084072136477497,-14.149046001323894,-2.645708940554046
-21.92621000414244,4.690925317032617,3.1855637659566693
-11.558280356383642,14.505216406872677,-0.569196685694397
35.3153328642245,5.604679726580276,-2.4171167075703526
15.351516458861273,-14.322233173247502,-1.9378424356490485
-47.76303314664949,-19.664296875500277,9.289408502663909
-22.93080865262172,2.0241924298137395,-2.409976874357515
-4.257385059684522,-2.610753981913595,-2.4755452961083013
-17.9231863041227,8.255931455407897,8.892416218469025
-4.391217099251072,20.96408369927005,7.221964135006838
-21.53540698221755,4.884433333008337,8.674141822440506
-2.9930696845795848,22.397414829522628,3.210302689173113
-11.924870912750363,-44.85351140218662,2.565612704249827
4.810350510080399,29.493190382363878,9.669015754325802
15.253345270247086,39.2918615457976,8.653088349755995
-15.475101275530442,-48.487279128360235,5.960720043991171
17.199556566590907,-2.588991036085192,-2.471080895985527
8.784455877483607,-2.803629050716849,-2.4909868120952816
-28.822187461794574,-1.7087454392479895,1.5960740709113086
22.974347613197637,0.7969034007942634,-2.4066463951092527
-17.91492743739752,9.343671218982264,-2.3663000527027576
20.76986986477375,-0.8095688176639558,-2.4342813968480517
-2.29850834161459,15.727399430254472,-2.258138353605436
11.929435338860365,-2.399497140347747,-2.498151657290505
14.932784893090853,-26.49225754288035,-0.18660178511736936
-3.6281065184035532,-6.194568239051845,-2.519052267741126
-14.867154690381657,7.987665426064082,-2.397735044436914
-19.838060968711876,6.600791337550173,4.560340849003475
-4.696635188812279,-18.581004229248034,-2.7228396427069668
0.21734996126522724,-21.457309972481955,-2.7804155730483964
-5.282052936992978,-38.27596154309599,3.088646972127976
31.979526674099116,1.5023700746034647,9.497461806473256
-0.23146668337720952,-16.05665358361933,-2.6849905988186547
-21.373661560907685,-26.588559924038677,-2.7269809496403195
-24.878742803058003,1.8887746012333666,4.487166888043949
18.36420240157567,-11.37005248226498,-2.529550890887078
8.3673340642187,33.10316074902466,0.6285909467201787
8.34658832323436,29.911206675320194,-2.0991776334130043
8.878538490446182,-6.446409977844095,-2.5346602192300574
26.147122464939965,30.180782315545088,-2.2074125425855926
-6.909115827331244,1.92795784249849,-2.4185780997893556
16.79217525849052,2.876667258257973,-2.420428903536566
19.405834127348673,-10.735098937705873,9.345935271685276
14.555297845318687,38.902179844700804,0.25486468066319334
-9.540336812455344,10.063621526197,-2.3186011538115467
-0.9847335224707848,20.961088403631774,-2.1968507046621397
-38.88367618308256,-11.185787070879428,3.7345003361455116
12.100891988409625,36.36809903022368,7.868790528661031
8.777673795785807,6.480858563939678,-2.37990947725296
3.4110739880002665,-21.493326860307214,-2.8197936531747887
-43.73420070218218,-15.542717739773837,-1.9947745902311909
8.843204871132032,33.26231314546866,9.752430887732547
-1.1847638473096593,-10.47837081312104,-2.5727601167568865
13.344316400967333,14.303320605361462,-2.2909281768352674
21.624215567797236,32.21328482409748,-2.1447471135783016
4.445035206095571,-18.897194270996806,-2.7580096937609024
2.9541484764341126,-13.288553291326048,-2.621057635886959
-8.20227878461788,17.438844384328714,5.975317275685593
5.748996062516262,-27.446248253569635,6.841546949307765
-28.72255009645622,-27.229044864166895,-2.6753766092310656
-5.668862196177859,19.705917926557508,9.240238357137324
12.307539508661534,-23.84633717285764,-2.145108081614837
-0.9628806225677005,2.818506304976283,-2.4139127724867
-16.28179682828908,10.080747336314396,-0.352546622969987
-18.056572691987554,4.564077035246856,-2.413214433267379
6.815859019128099,-26.086485451515962,-2.488601616471092
-27.623506113257076,-17.886935846899625,-2.630631894594165
-11.674159954290069,-16.937897974765907,-2.6654706408465354
20.324524183039877,-6.212966511133344,-2.4890077859585182
-19.560110873231547,6.7760283526150635,7.263806671754543
-34.26238811890915,-34.1158683743445,-2.672810905098617
8.92298522340296,1.4161122188612885,-2.440645475561792
-0.07053631804255879,-32.91809210789584,-2.631366813200721
-11.46215167066598,-0.5384818179476617,-2.5028929933892883
-31.329779332748505,-23.131853999002033,-2.6325323611955045
-21.29014127772971,5.381411330953498,0.13474490141361417
-2.190676036135196,-14.553413232189563,-2.646829303350121
7.1779903364126785,-11.389205368255682,-2.592078391799347
-9.165776170229796,5.831717083783328,-2.369604720126932
2.9996960625505817,26.530120531141396,-2.1342408960748975
-24.70184023003649,2.1805283343285673,0.45652550595980396
18.120336064612466,42.02265603783852,7.075538330751363
-39.84787636718618,-11.994539282181979,0.7661068375922784
-36.87379670250223,-9.152480219130702,-1.16596708624812
-15.254337018518207,10.792289817699183,7.606024541767891
4.525411078379506,-28.51481375866845,2.307904355317472
29.42999783397535,2.1074918573472217,-2.3585585630717896
5.298498238061006,30.15228876274626,3.2050303536445317
14.049664080819822,-19.028862769508983,-2.770153110491664
12.151770008862824,36.521008161887366,4.507656142786079
-30.249188005928918,-3.288972781789748,9.434334449105702
-0.5516676037579977,24.6228946180695,5.0563227527664365
-2.6719258781918223,-23.631232671763293,-2.7851731306317373
28.057350817141124,18.16786153222264,-2.2595137686224103
0.6943291510741605,26.01184287162192,-2.0800392278968256
-9.171962080848617,-18.69058929354343,-2.6976660257832425
2.2038873997351147,13.512460375906002,-2.2891699748842727
-7.856717671305764,-5.8008849712533355,-2.5100840869999206
-7.766184443897348,-1.6267346770403865,-2.460239820362797
0.05428406484107495,25.333443763700707,0.46638594173559805
-2.2423484429284146,-35.2639783452851,3.2614255392430223
31.808137621160782,1.4943183674323972,4.52398767562523
21.98600538154242,-7.919901934255043,-0.14339207192752262
-6.2830964801618725,9.447077551734914,-2.3292571755541047
9.575243580295341,34.31427052649485,-1.9693433961483777
24.350752712843022,-5.83807432278658,6.764588872134095
3.388642037655156,-8.841097172771706,-2.557779155859835
-0.9024485045533192,-33.80867512743068,-0.6226342964560897
-35.32198144976689,-13.043472265682487,-2.545284751896425
-23.25601378230514,-3.6908192106776903,-2.4651581916781597
14.646358092008969,-15.074807241138485,0.12896780805676702
-10.522386822310235,-13.423787471520303,-2.637126848495263
5.73140521297415,30.420931023264092,7.552552160537084
-43.11870696921848,-15.323977138403313,9.394635558190815
11.821767022766508,1.8761600866000974,-2.4573704485944825
-38.73824962094715,-11.143951763157048,6.739813270871078
-3.6902119974806378,-36.661827744856154,2.036888637047963
3.5858432612134923,-29.595094957586824,6.886818029153365
-10.901682156117255,-35.66275501739367,-2.980980617400006
-4.27436179161567,-10.257002321248866,-2.5670004158681046
-18.336181575369665,-12.195093909719905,-2.578989065395721
17.004711134408893,-12.995627702923858,6.924912982888597
-11.170786155870088,-44.194283026427264,5.338532293059716
18.237665374698363,-11.603698667593102,0.9290169272605013
-8.604859053013485,17.186519875916414,2.0121864962560934
-26.17974489709674,-0.5865483062977638,-2.4169869700788427
21.474898762909728,-8.641409083824785,6.867149208376466
15.146702325865004,-9.6370761271288,-2.55053794446109
-9.023100032021555,-42.17555659479998,8.854536174677378
-34.44443948500373,-7.214863945898746,9.506844434095232
28.546697677692478,-1.4637327824030937,-2.284924079597351
6.615338756704649,-26.652082341903103,8.885316314179557
-27.44546732477532,-0.6149063880558597,7.778746169617288
26.11482099560635,-2.628598509073704,-2.4225677909715544
22.091834867618385,6.062700964349087,-2.3983203000575544
7.954943746982627,-17.46635268904149,-2.726700889632138
4.117055517895426,9.879521215681141,-2.3345576053068964
29.31035571758421,6.515919437472708,-2.400168050432471
-5.179755033107639,-12.429635577947503,-2.5927087420296946
-6.40738035546739,6.594815118717309,-2.3632536826354897
-7.09252710883189,-17.625748319270983,-2.6992342146784907
15.973704597257987,-27.543229636217113,1.760102433766272
3.195079759782822,28.258146614218592,0.8727469764101092
-0.9970339825823907,-19.444824914310875,-2.7661685747089573
-17.6359956414281,-30.11140326511652,-2.7894613089527205
-9.521521854457252,16.417823512812046,-0.8156795681865034
-24.76872349354208,1.8804220217198488,8.037317528680196
20.060324269186122,10.04370076899516,-2.3486496333407563
-23.370876163109642,-35.75576931512583,-2.887521980564352
11.875804527800335,-17.389482554822564,-2.7285010433489987
5.726444093384352,30.394598584493615,-2.0907561177093212
13.113759793645995,-24.661081829564345,-0.1713844986897757
8.379206649900626,-24.52728429664042,-2.7134860622324157
-15.3116066665594,-9.650064348988737,-2.5713184835596037
-15.372729611184464,-16.477507996765265,-2.639162499068098
-28.654251660636433,-13.477393071776469,-2.531235796255335
10.2682068234444,11.00614297688856,-2.3272744950148514
10.657051192852379,-7.939260624544697,-2.5587334831504083
-26.463582066644364,-31.31442579712263,-2.7714407140618276
9.617594623666868,-23.360382204845614,-0.775294144338425
-7.469268057252986,17.528106682363486,-2.2313891008952784
26.255767037849377,-3.952191746534457,5.791450964036415
-4.579187155567818,11.94727509273823,-2.3010632332210674
23.745486207538924,-6.313036570233633,3.1836378671502708
33.455203276186644,3.2226825564990653,0.6187561732658884
27.277758370877745,10.840859191415163,-2.346381729015525
12.216409117309981,36.7152749563917,0.2374284857592981
17.19664012334938,13.702903986963776,-2.3019905619464134
18.05239593073165,-7.008052488571996,-2.5091627601263777
1.6942764691695613,26.644801305587674,7.565170472613614
-4.641336394204156,20.87797770131092,2.5047858236818277
14.364491236486288,-23.424332895342843,-2.87668553223525
10.377073697382304,16.3097649364156,-2.2639368004257765
-1.7901432616313302,-34.91257359533194,6.287063265147682
30.853603060144234,0.691264513433747,0.5681527132257693
-0.8116610200794918,17.277058216704432,-2.2410971264490804
19.45647035828402,-9.253293980712996,-2.5231872220035667
-28.34944567071722,-1.3318320574700007,3.6773541208329426
-6.463997357529449,-39.632019391769134,8.75879992383154
-2.727056478535474,22.50725688708635,7.644382615388713
3.7533529505303127,18.660318686932495,-2.2291464787048265
22.87989859182591,-7.302301845914003,7.7710047935172355
-42.97675443175658,-13.513709135017638,-2.4904152505186286
-12.699996613434552,-45.51227504810062,-0.8698837870492622
-21.560162016627505,-18.51749759613449,-2.623223316659831
0.9692294953108527,3.8345020695629533,-2.4037041806286203
33.54590425040069,3.231419626336722,3.110606510148707
-11.191048026705534,7.512355113130949,-2.424060384497061
-30.069471332686746,-2.153284765628298,-2.4098068066072362
13.708847473442198,-0.029375081101724418,-2.4654587971232935
-13.074997452741457,3.822070893501826,-2.4498664931020393
-31.908206092917013,-4.663280677506172,3.7765819883607756
-8.963571789188213,-11.150567953511295,-2.572967759747073
-40.497878122985526,-12.734245588704212,4.971798911823154
4.515995112734661,-28.4554833460119,0.176788030033318
6.3849441152959105,12.242062871923672,-2.308578413959921
11.677705403738429,-14.65509044547266,-2.662225850707513
12.788746535018488,-16.883492447193188,0.1299622150741103
-4.808728539338945,1.5347440089554973,-2.42539737778062
-4.437422539600616,21.184672819998024,-1.1964932175093437
-4.433322081374841,-20.72212717164237,-2.7457739398843333
8.675149502970644,-0.6586105324059686,-2.4652158340902326
5.164091435966049,3.7157808985210576,-2.409348996411931
21.980150549892876,25.370980684346165,-2.269127212443146
-18.963258827226625,-0.424865383169925,-2.4577296255718615
24.15266569780285,-5.790583112563189,-0.7622322032266842
28.756599663890956,-1.4744955130614394,4.451976831563608
12.840179468640027,-16.95139335866707,3.824464765962233
4.154735541425151,5.722251539841497,-2.384329049492323
-45.71151739038696,-17.52044643408304,2.10394630972164
6.268824004249703,31.166334542309382,-0.1950667709686047
5.423900829510069,20.40114307993369,-2.2100033344468333
1.3330387961524028,20.96384769690495,-2.199151872112316
-13.11208082518306,-10.448179605319163,-2.59220156660827
6.257534404680725,18.063393536625192,-2.2388094112351484
-20.92550613419569,-1.4984824000827894,-2.456936948112322
-23.16855115362238,3.4874835885201483,4.511159566184849
18.65811193756592,-4.231835690595497,-2.4789776964887005
7.504604276950843,3.990643172690057,-2.4084178921172734
5.073361598450234,-13.738763775340631,-2.6339164377269726
-12.58178922345124,13.271896721915656,8.24106575202216
4.143357517639082,14.174093181011878,-2.2832080460508566
-12.385685161792114,11.27416612927149,-2.379469729070151
14.592171961193463,39.000733890287464,-1.7896506717399054
-35.861675621790866,-8.435453877568195,6.159808376470802
-13.60612958378793,-46.545476158529155,3.278047661664404
1.3361366047464762,8.19211223341279,-2.3519435100125765
12.32599896636393,-23.882103091146156,8.695886136896604
18.26065764422528,27.202640665715624,-2.214729653984849
7.247828009248185,31.95558527976512,3.8374867535428954
23.077623301591295,-4.055305630834643,-2.453030473194426
30.63721240650903,0.3103369871791526,5.899233331531893
-25.25339728353162,1.605800557240619,2.335586587727486
-7.129346188983821,-22.33798619557795,-2.746091025357201
-17.41081051301595,-9.258360539830823,-2.555084098269908
-41.587953850124045,-13.640034734550273,1.3431965778648385
-16.836700986801983,9.313882087818484,7.558094311435027
5.312539892051453,7.508997192122479,-2.364120175723869
-7.742514405735868,-38.49299230672771,-3.13862635776911
-25.717237190779812,-8.434750356390962,-2.4981013519697477
13.610969613595744,37.784666231561644,7.732734259531752
17.920226594995416,4.917879194275608,-2.4078146911486873
18.860084792350428,-1.4318428151651021,-2.4507769286894057
-7.437293075752185,-15.638049820513059,-2.677354457146603
-26.83679025308615,0.05750540967953715,4.487187114607077
-4.78705408910928,-4.53813850517515,-2.4980692165134024
16.741267076369006,10.840404145768929,-2.3357761068019935
-14.381856036544978,11.273379644930028,-2.3677608884185415
9.187799012778262,-23.97132036173333,4.942877932201355
-5.026619259564222,18.31646378036484,-2.2244179069490735
-5.835036120114761,-38.76414881983101,1.2030445835484591
-49.74939699497283,-21.199755830790213,-0.9955681585916639
8.686247721738173,15.2570484595642,-2.2748276747651053
-11.028198946464105,2.6440022555022367,-2.4736486760506895
-49.34250896996584,-21.02636826628381,5.6151604756367
1.0423046401427978,-17.581027015770747,-2.723023177663914
-49.505026995799085,-21.095622220580285,2.974722564160362
-18.14759623869742,-7.212305821156205,-2.530320397182419
-30.874194580488716,-3.7408233607798738,5.199994945480562
-45.54108935166647,-17.455124268166575,5.1059350602930325
-6.111018228177965,19.43446666613856,4.706312523673651
14.49831449821933,10.704604416216378,-2.3351418539578654
-4.753605548255777,-37.87305264384225,6.864680826042347
-8.96632979732853,-41.91020253270395,2.3692029141409057
9.528753472837701,34.147666501152855,1.9597817609439907
18.560045906961236,2.0180206425640006,-2.4190412589610797
16.134827797851724,-7.4321624561383475,-2.5237835220462115
-10.34793455734989,-43.161491540319574,-1.3621303421725612
-0.755924650846899,-8.563397070882822,-2.550283123283816
-22.51402343796415,3.9562672822735494,-2.3931227599044584
11.263355440582181,5.297666481668868,-2.39656730167373
10.88923617284861,-22.432618019226986,6.736240651067203
-9.738969780199202,15.881444489284464,9.81132111377114
1.5163803249216308,-7.709660250702111,-2.5423582409849956
7.380019813446955,-25.654189448847028,1.475664977286134
-2.6659300652348716,-1.459877808399321,-2.4633800611168
4.741490817196544,-5.385436896329438,-2.5178014490948177
-11.853806657973331,13.80154044750802,-2.357344417669644
14.947694750923489,-26.518709125519344,7.032310526706139
2.8593920505212624,2.0046587696342937,-2.4274981720387756
-14.757448142832342,-2.528098190641551,-2.5034262488687538
-9.228435377725768,-24.664988416224812,-2.7570158403204585
15.04753453640169,7.304370682259779,-2.3763720231070624
-48.338237521166654,-19.901111601019547,-0.32075728511264945
18.36481704446237,-11.684598806438164,7.339239025265616
-37.1904573944062,-9.717097189204987,7.401085969455624
1.1390776903790352,-11.82495483526565,-2.5912096165412173
-9.862364374947477,14.441245883256261,-2.2659072422368696
-17.08422826050447,9.178830936339395,4.480210762654678
3.6136445639139616,-27.041233540741658,-2.8561310493117595
-30.99312091944635,-3.755232884106059,2.110390256681173
4.86083665025149,29.802730683141622,1.2977833194867527
6.641040590114513,-3.258932691381131,-2.494275032504984
-2.6833557817295075,7.854613554410187,-2.3519330718877245
-18.931409712832405,-3.0044878416135123,-2.4836857179369836
8.265082370114206,10.027140984356693,-2.3369690127058456
-48.18499461972904,-19.838020676733397,2.23953215957668
13.184060595549056,-10.07574558357824,-2.5655467946679167
14.231748232444085,-15.770093573825742,9.260566330959636
-14.662455826531403,1.4758557805724166,-2.4639862965749852
3.0877258860064987,-10.733454224795913,-2.5801144138828005
-10.381149314058042,-43.30003111386707,1.9136801850120768
-29.6426287840032,-9.32089611421008,-2.4839130846161557
11.60739946888081,-6.236299100599032,-2.537043195603499
12.479837757017258,8.749348029647459,-2.356499860883534
13.440823256972768,-3.5734121429939867,-2.5012212801084415
-11.978911247860244,-45.05677555529686,7.20834809989363
12.07125069653638,36.27901489995771,9.826971379045151
13.12254696133628,-24.677606538333624,4.673257359752702
3.2047851888702983,28.34398404512093,-1.5768253081832249
14.899076209826184,-14.963064287648463,4.335045311936386
-6.554655645656468,19.186530324980353,-0.6222326398666139
-44.712718371515216,-16.511222702258102,-0.29246571697109486
0.3324472705303517,-32.8199926595366,6.7382553763484205
-27.69498932795565,-0.6204968439187691,0.5099885189669375
3.7887284906264584,-1.4708079874349547,-2.4700111620677028
20.062731208434116,-9.84530808483298,1.5106918061390593
-37.368819421881575,-9.7636994973579,3.564915043529045
8.040109953066203,22.319708269586485,-2.189686228000963
-6.4362537624166265,14.604345316796003,-2.2674064403243976
-11.153536410852166,-9.1135446711295,-2.5903650698511327
22.307682028271138,-7.727844023192584,3.650144731098573
3.875248549027266,-28.998840143028954,-2.700375719780366
29.26424699291944,-1.140662988845445,9.476032234016724
0.6251966621653328,-0.4900674368748617,-2.4550926213961977
-3.214139612944812,-36.41097524212715,8.917946914864519
28.515823386560903,-1.8132500974106873,7.718895308870636
-11.647671314600892,-4.139471275611288,-2.5377761717294844
19.33750456400819,43.37360545621509,0.291392744838734
33.228840642221556,2.7897796975008493,7.273406068394766
-3.181485400697388,-36.0410561169891,-1.5549919906736676
-29.0063620097985,-2.0771551561700745,7.855918239041909
17.0780600048763,33.748018916803986,-2.09084404426638
6.829172365604568,-26.137439912016795,-0.4973397281823811
32.07137075304547,1.9013757570392873,-0.19713547146627847
-46.54809246246585,-18.49936894203552,8.375075859898466
-16.842272190667774,-18.96514215077429,-2.6553871256797392
6.853726437512858,-26.23141624542004,3.1751845075306635
6.245911458127568,-18.28278647680274,-2.7448396245170676
-12.932786129370326,6.544588531021687,-2.4235046114053405
-3.7560996012457677,16.89594484395447,-2.242691114514508
2.7934582598453823,27.75268347856871,5.016372178769499
7.485267027837149,7.828363731821582,-2.362487692790344
1.480178863268165,-31.507163408333746,1.3556050013534038
11.13254235845701,-12.644462823748105,-2.6047353043024293
-12.9704248062491,13.026129773470025,4.484859570674593
-15.399399127995293,-48.250085775451,0.9324206382594297
21.366265375939694,13.102423583219572,-2.3133732574336388
-1.11409241157898,-12.620855376682886,-2.6011237384557915
-15.343363223123847,-48.074511573231824,-2.7896046455533656
-46.83755528044041,-18.614408660774387,3.4069931292471356
12.637526678948543,12.583483534772434,-2.3107908287447847
-18.779620149454217,1.42573400271414,-2.4403209369716357
-47.878748921522174,-19.711937680540615,7.3560995257963695
2.211286758104004,-30.879438169320125,4.398296790163043
-14.339841672020984,-33.25535641677342,-2.8949304274655
7.764082568872522,32.38418084860361,5.568157943230776
-13.946737221791555,-26.74053693255505,-2.783668162621468
-14.517972573833191,-47.492753121528864,4.583801402050466
-11.352770350991145,14.61167693676787,2.1670336774293224
16.894247452931236,7.199161046781798,-2.379490431496187
6.881501569458448,-9.563724097825977,-2.569941536843423
-20.588867500345668,-5.650238995411155,-2.500386870563204
7.707244567024406,-20.108496971409487,-2.790330524976632
-22.478118167477977,4.234952689134005,1.264440324713589
-4.894752925976538,-16.744556504106477,-2.6972664599767935
-7.611341520370956,-40.39918428059593,-2.778942496980814
-10.788460824761792,-15.248924937329217,-2.6537973238663572
15.18355971813248,3.768725827106576,-2.4188059987701207
-8.001201137062457,17.56791819538658,7.857627468359985
14.017232761378914,-15.920925592386023,7.443357019884792
13.679186347986477,37.97403896646117,3.725462230155416
-19.69207768831594,5.494986126024035,-2.3943153745874133
8.611824317543904,-4.626868609975932,-2.5126244087744145
-16.90123501967417,-24.521798187764386,-2.7488717091532227
4.019045277446774,-17.086181744453665,-2.7138400044248336
19.26784111625284,43.217351846156,3.1985915705837122
10.87610468437776,-22.405566198491844,-1.990885565640962
-47.09041593732736,-18.714901770915237,-0.9328826155251962
-7.3150895542365335,18.406220558589148,1.583268648094334
-36.06613385849982,-8.483546946164223,1.5923507485081028
6.002428427173357,0.4298358805848609,-2.4495030906929225
-0.4911685083516524,-4.87970210361355,-2.506481639222188
16.29040256350459,-13.766894782965808,9.298109082494067
-15.596045960649468,9.656170042712352,-2.37678921913843
11.663130666943854,21.70816609741628,-2.274531439334508
-19.53042706452093,-21.992123233182532,-2.714756229661012
14.93974903716676,-26.504612632687476,3.1852308624645342
19.520974430660154,-10.488019785234522,5.119229174895598
0.025656478730365324,11.973439406079349,-2.305387664595858
3.0810398519388222,-4.6325601577428,-2.507122566901483
-12.296645931943232,-13.846566273062793,-2.6309360324311446
-10.288978112687355,15.470202385966923,6.5194623204758
9.330217496658486,-14.409025797542466,-2.6540882848960297
20.266730097742116,43.997988752591496,8.099510146911431
27.21870142596272,-3.0775522259448795,7.761682481677415
-8.584296755148102,17.145450715017827,3.936478731097092
-33.68087441846376,-6.19624424356074,-0.21013401937424023
-14.814088669823892,-13.702565388269873,-2.6147211874511664
5.106488369349613,-9.894020111744469,-2.572105298143268
26.806341912130588,-3.3645763081277162,4.177120351750678
20.35823141706676,44.19663323046617,4.491303782628283
-33.32726955278483,-6.131191831730926,8.267504467685932
-45.40415002120679,-17.40263775402293,7.518040090880102
-2.491852065515732,22.91794630532945,1.558334042280501
8.666514056649989,-24.385893862814793,1.7494396645431753
15.665878089965297,-3.755882280086332,-2.4907834220779783
17.813306493446756,-11.95776157858273,-0.9220756224448948
-38.293181279190485,-10.508864857107753,-0.24365437556259784
-9.717037324596417,-4.7168419770365055,-2.4952421731822234
-1.7018423799962512,23.765319606074883,-1.9045838323622608
-44.35730467076575,-16.379977835512385,6.126830075920677
7.358582043966775,-7.3901854476852185,-2.5444199090979853
17.21007698763736,41.298282227144796,3.0243779675697935
-4.2832915904327695,4.630743194533575,-2.388889035552386
30.917517994321788,0.6926965058590488,2.47206187010836
2.058316823225712,27.111935335640922,3.5230650521601996
-5.920449636926029,19.66872921253746,2.9181975094619212
-1.9376818044698607,-6.943963051725793,-2.5297196814828187
-17.318087373048904,0.24965103879215922,-2.4606480163029816
-24.17146316495691,2.733008423271125,-1.3447006882888626
10.078488428611484,34.47769918543939,7.83503031516538
15.116556374549916,-14.813383641735188,6.278702823543728
20.634597837122058,-9.504885038995658,8.286396543851692
