35.31961885331155,-35.270609031689816,4.607120970110396
12.930743083949858,-18.81934018178067,-2.674121066191068
-10.596434998890016,-0.13740247930408642,4.013315275270906
28.577347389714287,7.553344798055487,-3.0945220543849095
11.96524140342092,-12.862438546049987,-2.7161248513346585
-2.6477413053243217,11.114782097184948,-2.6394949161569046
-0.15560929807143425,0.19910971376932282,-2.737857874794799
-4.378698790664856,-12.756724241078798,3.4664764567546973
48.88714288315575,10.384955607832797,4.612950127603005
16.20736166274308,3.8608854901116985,-2.785740223046407
40.00468579487503,1.9931468731532487,3.696997429758649
34.74316339214495,-1.6826430775769243,8.035488596812332
19.56483350513739,-26.341880982536125,-2.6229411056476657
-10.550892777692155,-4.999167568644727,5.089828281417898
8.377505191796596,-20.185436342912045,6.483426836452689
4.560105176779882,-20.241322441004737,1.915090820751015
-6.8622730400088265,8.780614254656308,-2.574408563315595
8.021603399606526,12.34883782984088,-2.6482892860381324
0.4381629569229479,-17.35756765733439,9.14423789150513
10.536487230406504,0.9147180572407848,-2.718252635929752
23.275431011447417,-36.699525073883386,-2.4023390479285953
3.2077038377002087,-14.238304854184802,-2.8101719927202184
28.350913532112536,12.590654156208497,4.0194547694016345
41.55485032517268,7.766761347369285,-3.3792754239264875
18.94360710321127,-4.978896694188829,-2.782735045186207
35.227593043456245,-26.08867207234658,8.999501268063181
42.365112152214174,4.202300220740055,8.19706745255281
34.08446225814675,12.696490869364627,8.873991526004703
35.36129099977056,-32.80325113074258,9.286951261323846
21.54022549163843,-15.147976385713404,-2.756850519363307
-10.682327316314234,2.117138041852616,0.06682168697414681
23.95311195853006,9.258844856747366,-3.007512422100243
49.70541536938908,11.19797990475044,-3.4441896928094766
2.140810382540335,5.178539831477628,-2.6925035221176845
-7.205364198805491,12.343281554639933,6.230757950773981
-10.512365019186834,2.352965071544953,9.177725489164429
20.981567697126383,12.595676477167595,8.925967318593994
-10.677562698963612,-6.58955348891786,0.848164455208119
29.13744961758894,-12.891545949157626,-2.9408446105739623
34.66904848006,-6.429969224193769,-0.6491364470514193
-10.537403120761176,7.803736524733286,9.355685545507635
12.471692447589854,-20.208846971997257,4.875322978174215
11.03307845718106,-7.360992403906113,-2.722925201656593
46.44523431901653,8.092233807007204,1.446842181635459
34.92454284861437,-20.900020457930385,-1.7492238167839966
6.719401131853158,-20.292604710681324,-1.9730113724311775
-6.463050120677197,-10.799944972622521,-0.07722829087979309
19.46730530007369,-30.695064621128523,-2.457032973645227
-10.189566164269927,-6.818688154496592,8.976981121659541
-0.6032087318633182,-16.69228826737408,-2.582524586418054
-7.291938467162477,-4.500148575285701,-2.7725389828012545
-6.556002654781671,4.3740000516742645,-2.6573367448004808
34.32989908823532,1.710412909483434,-3.1725670673643704
-10.676955505752977,6.750726675351338,1.6367688755765413
-3.571459351840868,-9.628640644000056,-2.909955323414863
13.41655717712036,12.480708448270379,4.47063643861056
47.26398351186572,8.833820297513789,8.03950039058376
25.02690456608731,12.61927106117306,8.314867128666936
34.7937435618237,-5.5735812940181475,6.784643560747555
23.36051178796381,12.50731408396987,0.4878250134292612
11.604231603395252,10.023938969276946,-2.757762082059293
31.37165888105598,12.571054860378116,0.6221909055815669
6.06137866265906,12.44097683461593,5.832044884168688
25.34630503460166,0.9511816082753685,-2.9704866036851456
24.237415445653774,-12.179005734941192,-2.839763177305479
35.01481500027904,-19.240283419995382,4.679015735090964
35.10389240937368,-26.67027118798882,1.8947289206887257
32.051379190851435,-34.45470770364943,-2.6013212781422204
-2.943973958074629,12.358318004099168,4.8111847995906105
35.418439873249575,-14.641996833381087,-3.0636210742784376
26.615096375259565,-8.411294777457211,-2.9221888612698486
36.95038388926273,-0.8814118463916897,1.1343019608491036
0.2962195434673933,12.41806074133292,7.549199637554417
0.41835932714647905,8.638270738087353,-2.681519877719769
18.92127058952501,7.313835011678366,-2.8819927452742373
34.87253576608809,-13.917737165124016,2.5381138811761903
24.296550645726732,-4.81535063799329,-2.9008024938408044
18.934739138763756,-9.514475546194069,-2.7457393683264972
20.067952136730106,1.7421857769007718,-2.86179122056761
37.44590634083874,-0.4335516064075514,5.320321795591115
51.617454343122496,12.96759170707852,4.254340386916329
17.183599341254737,12.438465092485727,-1.1726444910920253
40.448053543124225,4.012142437439361,-3.249147806319708
13.284551956563785,-4.378395659257304,-2.693168996850639
16.66067649730696,-18.815479614690645,-2.631050556287228
-1.8357453363812966,12.316667152116397,0.8417769574332798
1.3816865554386344,-18.555460480324683,0.7996824284161242
7.797969605793575,4.05273529181578,-2.72487703523119
27.392674780957005,-28.03441391051504,-2.6495307603954474
3.994165172873028,-7.685273371167631,-2.8024555487189393
18.74296561070577,12.542480762134902,6.092373890781943
35.32614943661692,-37.97503208478134,2.22907403709623
9.448675164367723,12.436516825912998,3.4067702470178416
12.829270108471041,12.535593748460279,9.16703526360986
35.13072962332518,-32.589368590859166,-2.6489416313797376
-5.9890696662342,12.249335228796227,-1.9371437967930658
-5.225890018911146,-11.811547484965082,6.8021740263578705
-9.055815927065659,0.3272497547283395,-2.6882383338677984
5.699155547524886,-1.8783590137103572,-2.7041102983665537
23.11168400789232,-24.844681793235655,-2.7124415582976322
30.156169004839406,12.515630482838086,-3.0136011012077817
48.858306645697624,10.378830008580348,0.3064841014366513
6.127514329458752,-20.149336521832538,9.181252666703303
34.720892133928594,-10.042743897428407,-1.5533979562006819
-8.87769215717774,12.264431661757058,1.023453778655268
35.13304225819613,-24.068117760671658,6.050284456208845
-10.69647318462718,-5.3934634288847,-2.767363311962664
0.2430785015081551,-6.47735594651648,-2.8257766183456354
35.22653265253921,-33.491851223184085,1.4917033719308421
2.924762146463705,12.353741200191951,0.8581708404246743
-2.3543150209126367,-14.69709129196696,5.6368984942211755
34.75215127992987,-6.887553557602711,3.2700004437095593
7.268220142072156,12.490762572981478,9.027566690455231
-10.737348944810641,9.02195799337804,-0.9480253310172966
-0.31233004454273966,-13.093442178307559,-2.8567666420678846
14.00148660852402,12.397995886528426,-2.423216499297386
-2.851891671388251,-1.9084384599013842,-2.781126151762414
23.43635094594248,-18.73049734411865,-2.769133392842963
-10.61385243939467,-3.08595054416372,2.2692448320481673
6.343090656587697,-12.973407919638221,-2.7805007318653923
34.96978290581954,-12.971006272693275,8.616253722645599
-2.5331326674564503,-14.659217486691743,1.1891747752846153
34.88669660952391,-11.974730610112779,5.240224020800078
0.8924829486504793,-17.913130446609568,5.803224415639807
35.011713193170806,-23.985000500191884,-0.2604079942906742
24.741023551010418,12.47512179129543,-2.900794936612121
42.34340699927202,4.200147232954439,4.454714648745943
33.27949980438423,-17.2372623914425,-2.995915378574267
-2.816387461848323,2.1397575089960332,-2.7255725750205237
7.2751063882944775,-6.423939603971622,-2.7500590232362834
31.548463523823564,12.641902910595281,6.112374736235619
9.926964270107796,-20.30343941971399,-2.646804428762454
15.063491200745888,-11.444525600656721,-2.6876750624920054
-10.60176410361512,8.473004813921976,6.115800923861314
36.4699149771431,-1.3179122485874986,-2.466896467438193
33.599631277040764,9.323389346111874,-3.2184136042909093
28.951180857127266,-1.0462079740682977,-3.032896960322612
20.24442820045558,12.493651055067783,1.315057904615592
-10.629654725729326,3.074543698843329,3.135421088444071
13.537907343436471,-15.672183631608238,-2.683405280195626
12.509088603503569,-20.269442853059676,0.14615117877043698
13.119661015652417,2.786971976722112,-2.753553375815262
35.05977516461745,-28.73210122244507,-2.505767040187477
4.59129692375179,-17.370726567805967,-2.777965624775967
25.19457302228151,4.389694196903671,-2.99507807477905
-8.63189995109508,-8.434306094532593,6.739208717465976
-5.62165156789985,-7.213801530125431,-2.8356812859942924
-10.616684897573103,12.290425030450228,6.379581209751334
-7.027165259615524,12.384624187356915,9.388584604686665
35.40088603320305,-38.05537270210103,6.087017308315279
27.607689287085524,10.671486544418828,-3.0986761396294864
43.58038275545641,5.405847711644186,-2.9685171662371714
17.63882141145517,-22.007672382249048,-2.6032186335454632
19.575137743150737,-12.715689818905583,-2.733730520148594
2.9394442929828855,12.415756307499242,5.749590179358015
2.6912195031942088,-1.0740740492848395,-2.7250796194979396
32.757950982648886,-6.075523439509055,-3.0751089147486397
7.251279470735948,-20.221695840562308,3.591927314697109
-0.03689580921498377,-3.1866956454890905,-2.783333729194131
4.163048278660695,-10.770021860216838,-2.81709686892495
34.61916692363764,-3.385423223866302,-0.21343649519082147
5.396027767232591,10.417959705319596,-2.710340669563688
35.05738920650646,-17.615910621966517,8.557852643111511
40.54594421543708,2.5192528716723253,0.7478841592539356
8.655896388953371,9.104221046204488,-2.7401009969005705
-10.539104161074938,0.12202256496452467,7.136407395757658
25.673259803204218,12.552431511487878,2.6377026363377314
-5.876264922728319,-12.061030971072546,-2.9263913370676593
35.30242110593075,-32.74863989181242,6.239325686260284
14.77328524727804,12.44815357871784,1.0679202037694349
34.969058697518044,-19.77766980779298,1.72661586146472
34.79207320259297,-12.905090116408335,-0.6831591323876934
2.041120352139289,2.200289552089822,-2.686808227219762
-8.518234980156112,-8.74204661921096,0.5245833714891686
11.519498670558177,-1.990584996886998,-2.7005793072347446
35.38003870724321,-35.330945046487315,7.73067100697203
-3.858996627757554,8.409710542418718,-2.621833726816724
-0.15947715807961835,12.298827124207135,-1.5937212483548548
2.4175561493086297,-19.48963935716065,3.7813213411881783
19.277081440595445,-17.021717663741043,-2.6922906459741274
35.212661932041236,-31.092880498690985,3.1754429609559596
14.257981143775313,6.123620659908708,-2.7907048636414276
7.664937633411202,0.2876453863995346,-2.6915146682833515
10.63148992500101,-15.887259772120302,-2.715868175729525
8.714034545076826,12.39124383768583,0.2788817594475169
35.293358532980726,-29.654917593385388,8.875792099563187
10.113100722771708,-10.099067693012122,-2.751832924207638
4.993522880772679,4.760842928010462,-2.7101181972139337
25.74902715484625,12.589476456289736,5.518610783870916
-9.223184414271453,3.2928866049363195,-2.6456078511125733
44.28590514520942,6.046064045079539,2.470812631918486
3.23330746603542,8.10143408474657,-2.7045945286336486
45.017609394754125,6.709677665297163,8.185576571623212
44.96200386011615,6.701389903711343,-0.8368871917707132
17.870062712914184,-0.20690097137101626,-2.7631240882618764
9.548795598008896,-20.153018903105814,9.077366521350207
-0.6000474322949877,-16.60480723318697,0.3058915251754885
34.83048172620203,-9.154400710421955,5.116449133058183
40.57956208389011,2.5213416604101035,6.798086084642363
15.620691959735728,12.519751794531876,6.207008646119894
-10.648823224734778,-0.5305545660818825,1.116215290998686
25.049363524871165,-1.8302668981963133,-2.941441677308779
35.166999344525536,-26.71821684184154,5.172367040738792
-10.538025325468567,5.134240076440737,8.58280363282907
34.941296611582786,-16.496326314079713,3.5664256341301037
-4.532352613045353,-12.694856821961773,0.5793280018267494
28.803281161550427,-21.3309877829099,-2.865078119024478
20.470957705179885,9.699439660234894,-2.9351464199211565
2.3941617030194546,-19.301040088735434,9.05306254956411
-0.39775550773376156,3.5640922073405275,-2.693985605849987
49.77829814935617,11.214399441724602,7.249283069604269
-6.3171561249575525,-10.856316367820492,2.739707549706495
-7.803892247761029,12.304783489497217,3.554926918765674
-10.542470059608707,-2.511406268957865,6.227498556301139
9.292326189998937,-13.52400604623582,-2.743577887018533
5.284619151623681,12.351757760383213,-0.7426677028294442
35.051808158872404,-26.630700046723558,-0.8104147293141792
21.538615717372462,-4.268753554710175,-2.845090845984193
-10.074005543764878,-7.105383766492505,3.493106929495236
-7.274587492566408,-1.8275577833409864,-2.735802039018431
10.662867268209608,12.378592700645054,-1.9133879108123435
-10.574837380800085,2.503604663168182,5.894633296511288
34.69254423898191,-1.6801915458409897,5.370195422600093
13.573996742266612,-21.402793080421077,-2.653310568016686
12.835679157513226,-10.002730953930056,-2.7208789207954176
16.938299069143014,-26.70745521710074,-2.5280630013402945
20.308255178577546,-7.2505089829594365,-2.794064004239058
4.084985730664762,12.394312758395811,3.354120243494076
6.985320450020081,-20.259094498582186,0.657656709070352
9.88324547112325,-20.21402215552998,4.332331469537398
17.485587923865538,-2.8010020133130613,-2.737961111919883
-10.698554725018445,4.733458543464836,-0.07178456809854653
2.0693020442345853,-16.682115356328282,-2.810667465420123
51.57121683557306,12.955975692164877,-2.285295813876763
-0.7850139807196754,-16.20894493949199,7.074535822568874
21.264177086858034,-10.684989712304018,-2.7870435355024976
-6.945831088461898,-10.139063618343137,5.720743936801437
4.0473091858394366,-20.27362400580579,-0.634459257365755
20.29994716956203,12.527914044374516,3.98852820573976
16.4702341794952,-5.880248195612829,-2.7039369466496064
-4.843621470222949,-3.506088298622033,-2.7832824779792507
-10.571838702332364,10.051243262186153,8.145818156641452
-10.499822195566058,-4.509539427340786,7.943537366661334
34.65283702277094,-7.756286525030391,-2.838570488042764
47.20624175397685,8.82302814088728,-0.8841089296549076
33.768910757110895,12.578947669728013,-0.22111485516232396
29.020256770869583,5.05624971802776,-3.0839195499880794
8.51234099685728,6.485935124006048,-2.750540522699196
5.7057852490148075,-4.446467851558179,-2.739492816161208
-8.345965715981764,6.670154796618034,-2.6066193336900296
-1.1889096429134192,-8.799616772765638,-2.8731046630301744
24.723386519241703,6.860365715703933,-3.004849489402198
31.45233731530365,12.603383817760388,3.1274386652306143
5.871350798555718,-20.193988887362515,5.681155972222575
21.43139379546071,7.389528360329344,-2.93734930243927
35.091769316374545,-21.589314224608916,6.370214142459831
-8.30983467820665,11.188271856256401,-2.5064256946569876
11.124584649370295,-20.178858375925493,7.144458302560254
15.263647338607903,1.5140389183881342,-2.7585460091513627
-3.900626621094406,12.28301404351326,-0.5538770549125129
-10.704421194671163,10.430369344221404,1.1947174253373531
22.408108369966477,0.8409186478524692,-2.9055138445485427
-5.477122793081733,12.33307124355036,4.3663514337943115
-6.230955036920497,-9.592228566141253,-2.939859510548382
35.17143340815667,-23.465495614546626,8.68018683789233
38.41742113677459,0.49815328581876217,2.5971528221686677
36.987918304607405,-0.8823071896831512,8.54707686958777
34.68494533995159,-5.120417000936731,1.506842055847168
-0.07983855670036415,6.157123807120816,-2.684410095313888
-4.8385821787725485,6.191202740484598,-2.649406376767052
19.65128566937287,4.936893001069591,-2.8786265631684462
-10.635390511721932,7.285843035899843,3.9971873516550467
-4.714204515832489,-12.246430637850677,9.121935077980543
10.105398593585205,3.3461562828266396,-2.735954343442384
34.61884389793491,-1.6766221711332785,1.489588900065862
47.24838756379062,8.83090535483592,5.629249080453995
11.814714526520481,-20.239413840137733,2.453475335893709
12.484238928831601,12.501586242637137,6.690919355244778
19.79739217681316,-1.9359954962292847,-2.826045433216566
29.26548509842058,12.569151786904818,1.760678274586988
-7.0698281213887215,2.0448919615335552,-2.684367433747406
22.838078359397993,12.59060999413066,7.389529604548674
28.419488674574588,12.62110840952469,6.3839708893226
-4.781106919899041,12.368971627663292,6.777257547522347
-2.1568550341476067,-11.629310986741263,-2.8856582076247363
34.002989798985645,12.666142309777294,6.525719751751955
27.65669238126708,-14.758131603896087,-2.893405590637705
0.5976030052675462,12.339288784610408,1.1402466039589656
13.360858690089392,-6.713668582988979,-2.689168433106416
25.56193452602892,-36.241683572242536,-2.451615029408943
-0.616998952799424,12.38385869851058,5.405412193019507
36.49910532777127,-1.318967099432573,3.3710525876924944
38.073965929325794,-24.073055029313036,-3.0450096472427117
0.9044145605005096,-18.152611234260572,-1.4528581251385702
35.17815846531002,-28.829118415583803,3.6356845463509475
41.70004546067363,3.6201614196962466,-1.2845563959394022
50.653902884233986,12.06667209215385,2.237915720220217
10.49775115878747,-5.114618066222221,-2.6976216134700155
-2.054228019382211,-15.204199446262912,-1.0371092744405417
2.252690348816138,-12.052669843618007,-2.832523907167868
-10.657331628522014,-4.732926034667516,-0.501165934910246
-9.53082161107952,-3.4176486300936118,-2.7352101150442576
34.85515050384613,-7.353611671996844,8.229200996404284
-10.693555630581917,-0.007424388186002882,-1.1195158014639128
-4.182812260903734,3.9768355097134487,-2.686543113495229
-10.342359188582945,-6.738667001244904,6.695701768789936
34.88182226429835,-18.613596899566872,-1.6992350198370452
-10.162628905300695,-7.167891474241219,-1.301948351117816
-1.0791445968527722,12.430489563964453,9.37296958911333
13.312501505114893,0.3360519825516904,-2.7339130960716873
13.142579421194991,8.110814473299367,-2.7774840053515533
7.230168772053348,12.425369585538736,3.883529615970281
17.86903492781278,2.2165312800450896,-2.783953894862812
10.89781391449779,7.888456618890654,-2.7619391922671124
9.430606981131632,-1.1565078562713236,-2.6922228062985867
11.835234980144595,12.448230726342679,2.8719482481320036
41.720621216253036,3.6219476900877248,2.3149702913381414
43.638746226624754,5.413087300126678,6.798814710214031
16.685788222880394,7.166332768864683,-2.8077083800383766
34.728380668647816,-8.673386684770229,0.21963864294173732
35.23989103217145,-37.88230571271308,-2.223631146407684
17.97347614841451,9.341116314324971,-2.877772263246095
10.00142069471474,12.514179471745141,9.20538415062935
48.03584354068809,9.58959832519819,2.707794990448969
6.754401576945508,-18.132580726007074,-2.7490305945995366
-1.645590120264496,7.746609843551193,-2.670244541330292
8.842466985254038,-8.003169607128298,-2.7551483353733417
-3.420549851890948,12.32697783196207,2.626338750246438
-2.5227966447849997,-14.599403010239424,3.422618188081514
18.790223318218942,12.574104833781705,8.562373640554714
-8.94152642569938,12.352617984294598,8.030957900846056
-10.693349298526448,12.379175716894435,2.324024891446364
17.240332246275894,-11.199038295157086,-2.6637981794000467
20.924905457418603,12.561660942669254,6.272750399093259
11.009220156658598,12.467932893131403,4.934281545449725
22.62537352488944,12.473346029403904,-1.7464485060230115
-10.728670577230753,1.7186169557376019,-2.510047485951953
-3.199953627450752,-7.479262159996398,-2.854584124514193
38.94832618667227,0.9831857842098456,6.023824792904439
8.708874094808978,-20.277376657284783,-0.6772640734386954
35.10523193697507,-24.68744928425732,3.961199859102392
47.996249656947306,9.581694030962428,-3.3084626716218737
31.619256077614267,12.670270459814894,8.310643560337475
34.74286024721585,-5.128966775856573,4.550502033822928
-3.682086541864503,-13.341378746945882,6.860440844656806
-1.8477287807450917,12.397068334480677,7.202373065758088
34.959955931612384,-23.324403162020236,-2.323204211201498
34.611271663224166,-5.1095408140741245,-2.365004276607538
10.312822418772868,-18.17524211383627,-2.70770057549598
34.323360351408326,-26.74789037781181,-2.9415100802067715
18.57100616712913,12.427408363362773,-2.895361760317402
34.75102651447377,-3.398317829969643,6.72292692988165
46.46001841435472,8.09480966560402,3.7698052665393393
35.009493593205704,-17.591843660273494,6.057854812693635
-10.633601865579392,5.180806001976955,3.5090354701698208
22.07361331229423,12.524798998801483,2.656988622813494
-10.594398875155456,-5.17992133858964,2.7243030020981815
-1.3784980173151704,12.35204527861863,3.357528293000333
34.56230965841184,-1.6738841663722885,-1.4871563296450965
-6.960662923764878,12.267420961495011,0.0865459810044351
-9.327292346199576,9.314349711229479,-2.538009941321663
-8.34089111511779,-6.35529975467682,-2.832767655515069
19.6458584517638,12.459720449627705,-0.9998291340841826
15.44952997372283,-16.607991694639153,-2.656474650583138
15.1846994000058,12.479413864932894,3.28632925622919
4.573413039005049,-20.300393168511572,-2.6962935554920726
-5.604389928579451,-11.503007674334047,4.667113437036445
34.35082075301721,3.8335787501645444,-3.1902509850728578
34.830707907684406,-15.41046582067868,-1.1688778331085958
34.995625278313774,-22.12671027425547,0.7622400220286532
1.8671073343931441,-7.83780920443573,-2.82724144331307
0.8974403457424401,-18.01263094790006,2.7884362261807305
34.140275997567606,-0.39527876204187173,-3.151345788807332
1.0923549863411917,-14.669861047540468,-2.8323748629033387
16.770140139261866,11.22229877831366,-2.866793302308239
8.554792853049113,-11.518080902967949,-2.762486651180059
-10.671472693508864,8.745459210243077,2.481347094592439
-7.797150820996257,-9.514318239112688,-1.2878136298451734
-8.70013539720107,-8.294740820750787,9.02994412886214
-10.718085326932723,6.776731858274592,-0.5449919786418342
-3.3881018352318057,0.12243573671373349,-2.747718644587142
7.88326298440926,12.468175971634405,6.8664104881273555
-1.1530266617246108,-15.780531261244745,9.092083148405859
27.48096375233802,-6.506149127515358,-2.9565308509233117
1.6820645175844584,12.44966194869027,9.198247822305435
5.330959378107333,12.460068924473726,7.787670764737188
40.03167591757026,14.354922161274072,-3.3995142592533725
41.144913000591686,10.33662816977006,-3.3911874834234026
-10.572313271615162,6.684564451393218,7.1875912130259945
18.147792429976928,12.469323535586247,0.6757395436121648
39.96689625799814,1.991264091279888,-3.198781112846775
4.5541180504406915,-20.21474687969012,3.9897246268425977
25.597397804892253,-10.216000842303442,-2.885350619795043
15.755957225735417,-3.935038345478483,-2.7153527740088794
-10.640569958295991,1.3048897888115867,2.064097915698732
0.9332069527228544,10.925504271020365,-2.675266550612172
-10.499536450857878,-0.13614600948740027,9.170694414266187
34.739190270578234,-11.924099600478112,-2.4827788552181884
35.22451455423484,-27.45015185757159,7.466814803466718
34.808181740154836,-11.94778066927699,1.1294138259184636
15.12701048901538,-14.032720805690277,-2.673537455610554
-10.413715360607545,-1.291749998336257,-2.6970249742897687
30.470064786875813,-10.878506129942831,-2.9862412018137032
38.404991589414166,0.49799211362980156,0.23567284489741736
1.8192992579333942,12.323663347514522,-0.8420816433425552
35.06306385487927,-19.266795673085714,7.1951689112814465
28.162903219432273,12.507158687109184,-2.463264756698677
8.487763027349336,2.1323377304399767,-2.7134925490064328
5.602745348970754,-15.624416735866472,-2.775324566854371
35.011577755416056,-14.979475628017251,8.79726021187309
-10.73381128786242,12.122065241910025,0.09935000406191445
-9.61619175017327,12.304388045301561,4.632710863168438
35.06448031513394,-24.658791060341855,1.8423304189767153
6.00893526296568,12.333336781580927,-2.6415278893803236
-10.583858986592853,-2.248298821594667,4.0976533401657695
-5.564708496245623,10.393473574773097,-2.5715182596467923
-5.014389106152664,2.1453737369316253,-2.7035248670439898
14.511018065640956,12.534872143494713,8.08087329349743
17.347531580567228,-7.675225642959032,-2.6950247083136802
11.847115517481763,-20.294918953141007,-1.878489781982457
34.91714679111485,-13.935541563552446,4.871309166806491
25.50745395813262,-28.8064521299289,-2.6009288484968054
22.94100046323951,-13.728665857858726,-2.7989159862008686
30.21860872399691,12.54154466485179,-1.0040846826928143
25.61769534731352,12.52526437212235,0.52497083009684
27.53935242096004,12.637089895908106,8.185417267433804
35.27751183877763,-36.10397219438075,1.5491229437773975
35.176211231595,-32.6315600543415,-0.2944119470675841
51.63145577677033,12.971109216362338,6.2346435476867414
-1.041826711050777,-4.93812135210849,-2.818227722325969
4.549893367798983,-0.2763581370468993,-2.6942485859293943
4.14050817462818,-5.720065378885274,-2.7737650893817207
-1.4462266225339397,-14.789040407696,-2.861084923134476
3.7498157598463786,3.2391566807176795,-2.687788924089478
34.81170491907475,-7.34444568204548,5.948732166115367
-1.2141507589141276,9.788132707166472,-2.6644561810124805
21.77113891037636,-30.076583039551416,-2.5098588674803612
2.9119497154620317,10.067516706850494,-2.6935969358829803
36.533577794785806,-13.043318180291617,-3.100912602108978
35.03043989253384,-20.963392808828285,3.768035925842685
-10.668639987124305,7.900927257183457,-2.556123726919335
37.889047943824615,0.026305843411771803,-3.028722872496227
-10.620923803625471,10.349009632000907,5.615980016250669
22.344227948502215,3.050510828931637,-2.9220496187540905
2.7109222248640577,-19.85682645953352,1.3547298627638442
15.120537894454209,12.426683286547181,-0.8411523006524476
1.3641751572595606,-18.320289879881315,7.741922848089726
34.85663248486164,-14.913183302656755,0.6979707295762185
-0.5947930328591039,-16.459404911531628,5.106731072112376
34.94323769219306,-13.451231121761012,6.733865962701379
35.36336822741369,-38.01504167533124,4.150328015416932
-5.301608948075646,-11.982687276292637,-1.0474193247781276
4.282153577589615,-20.158223270337768,8.388353734584488
0.8070554773101172,-1.463916064414831,-2.7505516730764743
34.84213246179742,-11.48346154456695,3.3860806644825145
5.953237773938166,-7.813212589741895,-2.783332833738911
-10.717560763975898,3.3871214144807507,-1.4563989603420218
35.289126182359176,-37.93523269280845,0.31791375997981064
27.35640958801032,12.553142205691607,1.663862415077801
-5.5579060179810105,-5.2989278695679705,-2.800903227654156
-4.825270931352722,-1.5977707849679528,-2.757110681733342
10.535569533575538,-20.271753540986325,-0.140183395464256
8.299394851637226,-19.32396238619287,-2.7250119253651195
-8.85906558623044,12.238699263918578,-1.0213064374226715
-7.537409060814295,-9.672135022839273,1.8958994832381177
1.068251461490819,-4.7417376226789525,-2.7930175481022586
13.853988592098977,-2.569459624216771,-2.712955821093515
35.29186683305922,-31.16281865125144,7.279348422912966
34.912624628149395,-11.506694740249898,7.077814784770275
6.109872286083258,3.1754028669077967,-2.7047846658119825
17.286580382321095,12.513008618498723,4.654730217120855
-10.54934995634255,3.4769127485714533,7.52081970638566
3.956705923781604,-2.6398146593882,-2.7332014919851626
-9.189178472171315,-7.937773678688741,4.942669756922926
10.176600446792133,12.417794328455145,1.4818755784694926
23.186157609677583,10.985941152663216,-3.00480007609136
30.253511809966557,-35.023034251796616,-2.558365451099657
44.94822904662848,6.699336828045076,-3.0719660620514206
-10.661992886141883,4.407672010260627,1.7837889726977425
4.220878878958536,6.497821717066724,-2.718903854841287
6.735467044475746,5.675388161172545,-2.7309308147705007
-9.12911936354235,-8.083626223512594,2.192959459290589
49.71822966644779,11.200866798258735,-1.5640564620428403
-1.9862819396720253,12.2903064865845,-1.1491097257483056
35.27289151005821,-33.53592720347479,3.890569447996406
35.12362306117876,-31.014258922826933,-1.4379976691385552
7.701018826270989,-2.0240378174601616,-2.6847762188223316
7.194288869336002,12.363708362127268,-0.9669540779339514
15.048373730571251,-20.2609682156172,-2.6421909545436653
35.18475068531307,-34.28395970768193,-1.5076375689926822
-6.484588122481441,-10.540199106761724,7.521006820304112
8.060853257709475,12.409260928367711,2.1022961382151863
8.757472167960483,12.453011572722515,5.133157024580733
21.385817468552432,12.483925191852412,-0.15194520297777034
-5.320722276197005,12.38854627001229,8.654252549191305
-1.0581374564212678,-1.4288054062497761,-2.769954895516555
-4.22583072945949,12.255916488825669,-2.4961050607590747
34.9312160907058,-19.7562669273588,-0.24624403481575763
35.134949369232324,-28.7937078028116,1.3940966694555668
37.412732689106655,-0.4331675192961878,-1.1482454740444308
34.95484176244029,-18.10501308169178,2.661013890040112
1.614828059760237,7.21458308613085,-2.6965766620427947
30.39508129327094,12.61478558172808,4.6753855352809515
9.140845797737803,10.878841494613024,-2.7358783466315666
3.1069311953690715,12.440202793395052,7.578846616222575
17.366993922207246,5.281389985354692,-2.8065745169944023
23.64534093767269,-6.525876620085703,-2.872721065231685
-1.0135504765889003,1.8384768661989463,-2.72437405527373
-3.5555666526013594,-13.528149273467486,4.908238408940747
4.450061210893042,-12.906238338099156,-2.8027180406209595
-0.6448807660960603,-10.617160587472211,-2.8734326865736293
32.47471124114895,12.55278703118122,-1.4963340907039628
1.6453146046020954,0.41334405761945686,-2.7156976786834446
-2.021510765065023,-14.96204538387103,7.7161630486766155
6.679402780132044,-20.171809609357833,7.4562293597160645
37.942735203752505,0.02634311773587105,7.305547804594271
34.75316383829532,-8.227850690487031,1.9742449053031426
-3.9357402745560743,-11.941485017311031,-2.9045923001201817
43.622363963458035,5.411055192690902,4.057185433655271
12.383934774399277,12.401142711855734,-1.1846994223008303
17.331810883045712,12.545749023649357,7.21418264868631
2.294355932948494,12.370687058751534,2.582999826076363
7.184907683518429,10.216845319719166,-2.7243895708427996
2.1621091839395,-19.373600978659976,-0.598252281035303
1.2122144260445067,12.396043503993427,5.248867522945435
36.51510693247296,-1.3195453489526674,6.571307159443797
33.84585265085704,12.607608589886318,1.9965729279491817
-1.5291071123993591,-6.8316067728206145,-2.8495633405738725
35.18117131578943,-25.39175620979088,7.254459145818252
-2.2777866359785945,-3.602549434083916,-2.8102614983392202
12.18672494980605,-16.835823171305023,-2.6929886991017606
2.1352288980516763,-19.132739907974297,6.229088381440898
-10.7018918653592,8.339889437372017,0.750019445066773
-10.706299263590372,10.432199331301044,-2.4994143473935266
6.178837281959377,-11.207778660536714,-2.7915421617883798
-8.419364803675165,4.899124172121588,-2.631459156014525
28.630863496213617,-2.799824456008104,-3.011682201602675
2.3853558166343527,-5.9527676730817145,-2.7956921921494606
-3.7152333927960655,-13.46148040330798,1.9839823454881584
3.567182377798688,12.332860005851026,-1.1849784369376481
34.823167902420124,-16.440555924243572,-2.603126638858126
33.8687806204952,-33.82178399508851,-2.6459245497675963
42.30090442234065,4.195931297262377,-2.873482409897678
24.151419750663717,12.551896983318729,3.5267503609073714
5.40080686630726,-9.518342158836868,-2.812762843470818
-6.5607265690776835,6.551622845727917,-2.627215010613943
-8.003736269816503,-10.014596444076137,-2.9615673175207564
3.339013463162083,1.0154107466323943,-2.689326691691159
24.665464160946243,-24.033985263341346,-2.7529054865466467
-10.602153203989886,1.6983502413034206,4.217708629906103
25.57171489546172,12.502783141567244,-1.223347614408843
35.24638200457484,-31.122655418511535,4.922607442821309
-10.646957622871202,-2.2617026840014267,0.7357707048784122
34.71743469083245,-3.395032871087235,4.955857159607722
8.887535137263148,-5.7731976930586235,-2.7238826221096564
12.089485643610583,-14.71024259518774,-2.705120063429214
34.659547388605624,-1.678593478294842,3.6327842929607725
16.08963904733603,-9.898739217785392,-2.683825713234993
-7.248899989266127,-7.814178568064104,-2.8793690759242936
7.427228057663504,-4.696019061404812,-2.724582744152319
18.335889654523122,-13.930738615999974,-2.696845141166204
4.946535557277727,8.746009713623973,-2.714373485459368
35.41867173084948,-37.14971284895637,7.93599136799784
1.681782386123694,-2.963960864383873,-2.761933141608019
20.04050857986598,0.013913848703082739,-2.8471692900004415
21.541629251591193,-25.565288186108965,-2.6723537062245954
2.8002447094281537,-9.63119263083343,-2.842049693403682
-1.3510322730730948,-15.81718698802937,1.6619415685406635
4.7611714799179286,12.368440123440667,0.8958870056373754
24.220109608302828,12.587596251758681,6.305654860894574
-10.562866201330305,-0.917008129871992,5.583834570271118
35.0868400565827,-22.79183833795318,4.899989301572791
11.323067233705343,12.510524342339629,8.1077795702991
-7.375909538392638,12.286608471422577,1.856842850929882
19.18899283206455,12.502779146106553,2.6822260861673923
41.7414144136194,3.623752837541792,5.9525362871646985
16.341827434268982,12.45157267378065,0.37823032752108143
13.384597147074004,12.450977734813819,2.1408875728753194
-2.1868053024342546,3.7461470105286763,-2.709680189695689
34.651669982556356,-3.388601711978185,1.4963597180166286
42.961491496520416,4.7945364118255975,2.3896339017442676
33.955006680542596,7.649618852366432,-3.2125826660769654
-6.483270697565616,-10.833734145479303,-1.7937096317596795
7.790882833965603,-20.155418053232836,8.795696942888771
-5.638593444624509,-11.573210374818744,1.3477594946837645
13.303992992088181,9.88123847405903,-2.770898608137281
9.417018502442964,5.041910434740353,-2.745417779922686
-8.924806230351443,12.329519222861405,6.195472971857147
13.670099391153068,4.526520012145602,-2.772602352723551
33.13504649181805,10.97186251225479,-3.2216575686797486
-10.626960781254592,-4.410477812100428,1.2045552927106316
-7.163080196514411,-0.0928826514349572,-2.7129595164480462
34.76369365085229,-10.519099804401893,0.2228615071563256
16.24031112593499,-12.655930458168063,-2.667806063531131
-10.616659870756989,-1.3169238735162487,2.6100612336347315
39.452006607159994,1.4805322923029622,1.6967576861039453
-10.634638463852188,8.935656463135356,4.494406323602408
9.065221069292962,-16.931549190175925,-2.7285544993773847
13.745070350620406,-13.068213547324374,-2.694497492629912
-3.445146556071986,-13.79442257182363,-0.08724242810939506
1.282002450158665,3.734934169924544,-2.6737164015692105
-10.744197283937144,10.72928853889825,-0.8393669580153886
41.163550414804355,3.0651421581568066,8.474229427654858
35.00590109137812,-25.265256191666417,-1.8554041684662235
4.433421734575805,12.417757168720543,4.993461838399704
11.748276922974366,-3.7128635167443247,-2.687471270323041
39.980387354568336,1.99193625596285,-0.7369458554301894
44.97232053188455,6.702927558488558,0.8370792181423923
14.229485937042407,-17.75389961524728,-2.6646349067268993
11.758208665672047,-0.28047947867952594,-2.717057837278543
14.814605805807423,7.699398538169173,-2.7915962512631216
35.091975905526034,-28.7584902949043,-0.8352671454910371
43.64872378653257,5.414324948031198,8.468594402646195
49.75238621433841,11.208561821709445,3.4474443985359002
12.671418202103135,-8.23114634173928,-2.7174687631289993
19.66308021457675,11.15703731421792,-2.9293548487313816
-8.970758478542871,-8.345018744560953,-1.1308637952466893
9.1116689056296,-15.177993680912572,-2.737099250535249
41.14013454535487,3.0633985532467274,4.318912262922648
-10.521776495725616,-1.5682247392027353,7.590202608538933
-10.54230674781217,1.821724907040471,7.4369821870114805
-10.603120792576773,3.785555276805748,4.744616377335598
5.35535221853321,-20.26145566434347,0.38581982957640854
-10.484331618299846,-6.649332294943872,5.053481736136435
-10.57169000838089,0.7724353659174176,5.582399863615481
14.627506847468,10.864248314526224,-2.8171601176316075
-10.570447160822269,8.447976091867066,7.775581849293141
-10.58050609390094,-3.9412474222726424,3.8069495603448615
33.275386934226205,-4.495812649502796,-3.0992114682246052
32.14898381632667,-7.611308136502444,-3.0493666120810223
35.194589236732,-31.85403659233296,1.4567983728465956
6.674973473954313,1.5900989173156341,-2.695354498985981
11.99188145221117,3.970819071867254,-2.755348914049505
26.36116355621402,12.490305483967791,-2.6924270963720156
3.2647611700327355,-20.201017078083137,4.992512429522927
35.135324639632,-26.694151904555998,3.527251175889034
48.91223815610276,10.390286524719148,8.360732428280183
0.4421186879246539,-17.51427161281825,4.274422675019384
-5.9065326475842514,-11.068823673521353,8.951666183694565
-1.7758777579156781,0.3746681686887939,-2.7527106417936396
34.793705935373225,-4.2668721476318785,8.097971454918325
-3.3219468786132396,6.794317514421712,-2.6538309931861592
0.5820465967539047,-11.682325840984854,-2.8537421637669644
-5.464530156242497,7.953050437725748,-2.6067300664840296
6.154654491174719,-20.238582539429412,2.2145974851595245
43.59006596119764,5.407048846932311,-1.3479986773760058
23.564966947741514,12.616780217359361,9.012670597397943
10.416571094122261,12.397126957154073,-0.2980995756590218
8.689448717827112,-20.2321474254136,2.853081676943758
34.71055297216065,-6.8793091594255085,1.0859602509340045
35.33750317562437,-34.43280146785012,6.392993860876324
4.398629801617161,12.320306982210782,-2.6857143362147826
-3.5777890778786348,12.305487333133065,1.024391956066028
32.6910552515265,12.636412725881774,4.979337070651963
14.86642156736035,-6.145784464024372,-2.689731542558987
35.36221266668119,-36.19065734239931,5.925820790068263
20.984384518341574,-5.791479373298149,-2.8206482217242743
-1.349204560299458,12.089560963893192,-2.6533573583597905
34.79623762985047,-9.145400427783526,3.320755843210288
13.356763516401566,12.425085590883485,0.11193549134246826
45.72954520450475,7.390521127220907,6.581125788496659
-10.149865205678282,-7.347048866017501,-2.8945595469862115
-10.582067423331816,11.659233924457642,8.047040511677693
11.81679380294011,-11.234892286640822,-2.7262685763908396
5.673111437429113,12.408542886901266,3.5067289634923533
11.647768478102753,2.177012726334706,-2.737367164906803
14.423540369477163,-9.88093958920943,-2.7031656990641375
29.284733289789656,-27.16627230629166,-2.7001946267721926
6.137587383129094,-0.14640557575712088,-2.676428718006147
-3.864012761072864,9.996401463376682,-2.6147422566539027
0.30433249748886176,-8.109602042538329,-2.8476569406499674
38.427440661042134,0.4982832075779153,4.500754397795975
-7.0748873384667545,-10.0603978193576,4.146916706447908
-9.45888101517716,-7.581152158257602,7.780822733011467
9.163288525017872,12.37320926890961,-1.4211209683989374
0.5647712040755459,1.645381620004018,-2.7102106514026274
-10.657727919039608,2.8011416207357374,1.5655747514602694
34.586705236504294,-3.3822487815191034,-1.9210563802530487
0.011917545662003594,-17.165177025203015,1.7970343614880855
-4.670094906896443,-8.498965718393954,-2.876856511604275
-7.8772640726384395,-9.144767640626233,7.958039651584044
1.67795577047311,12.419251395447994,6.797734825837531
-8.968477376582035,-1.9051479373270581,-2.7199423235592826
15.883501350447686,12.413359696369815,-2.3608694201622993
25.334694593671585,2.8273719435852835,-2.98545704895955
-8.022077879384973,-9.084996688267008,5.28362409973207
-3.2709166092411084,12.375195721123859,6.3449255715969715
-10.604842639341651,6.888732603036491,5.512926803915381
15.750436955786837,5.647934824710621,-2.797709211233608
2.4562096519595897,12.393162345126417,4.259940233389531
10.81439018156582,-20.19855643026457,5.5898335682304054
26.54759473471682,12.578639307559092,4.173583228204894
7.094104258111011,8.656439651181268,-2.730572522986972
29.218507934533342,12.548975695463612,0.19512075259816755
-1.5222895831271723,-15.566856401548584,4.225329900855027
8.386604058904913,-20.207359886807595,4.772178239416233
41.69435013551929,6.214360416614511,-3.3697213412505427
-4.620248400844884,-12.456171876860687,5.407745519556594
-5.450359208623601,12.272806537732215,-0.4121146213457225
5.0688052315681595,-20.176361850738335,7.0143582820079216
-9.122145813231313,12.281958814235866,2.5580337124203445
26.61903555111671,12.612489012977289,6.80465270347789
35.32650283197686,-31.193402336670548,9.07397051462149
9.558209106204963,-20.172886393897997,7.526666433558308
-0.4621763297959151,12.315694640080327,-0.07562229780935194
24.913314289493254,-17.520071769610556,-2.8111655046315547
-10.685585693754474,-3.8317344294382853,-1.7551364755416148
41.71179434750624,3.6211813914100888,0.7707961541344397
24.10964509230444,12.530185994331235,1.836722311789344
34.903593751215624,-15.95771386875945,2.121544972459642
14.120740814972638,12.503592756513724,5.848020237903527
48.063849020645016,9.595189177443011,6.963204347961747
17.737602746615437,-17.71298988909228,-2.6243188306030634
6.685798336011276,-3.257393363516479,-2.7126278739199927
10.101052067381781,-2.6548320218059733,-2.68432361290517
-9.027141506720703,-4.976654177481569,-2.784649164849575
-6.4268825726278624,12.366125925510985,7.559519466029935
35.092569892954806,-19.283008939817808,8.73389375844461
11.129074641399974,-8.894435123200344,-2.743071081042925
24.726737846515615,-3.3408110628748595,-2.9221488978256147
7.20599662615183,12.383828667757832,0.6157782938545665
-9.591019723654412,-7.687059363703396,0.22628283664309298
-6.318607172858918,-3.089357736153503,-2.7627839011848274
4.268530622429365,12.43576474842743,6.517316818815007
11.81186302368411,11.541476251216764,-2.7612498730830572
-10.532875353833552,-4.071381579372357,6.305839276428052
-0.19740666419987324,-17.050038217912004,-1.1526229236876708
30.473420977635023,12.64729868183326,7.1966153562188335
50.67622191452733,12.07198888720082,5.453783579413501
24.035467988336283,12.491634912152985,-1.164173236664264
8.785671384190614,12.493110491602359,8.284497930336306
34.9663578531745,-22.108205337384646,-0.7616025479842414
12.459565183212732,-20.189196228442114,6.408954317944062
10.098802651030391,6.404823602732463,-2.762572762951053
16.49536455353749,0.6190285867586175,-2.7600066217261476
3.1006764405402483,-17.796278167796352,-2.792982342261955
-10.476106203692522,4.330826383363127,-2.618749575877064
44.98957055394075,6.705498598783066,3.6360397880422073
-0.7666304930649427,12.33848239499292,1.9113650647485778
22.214310600011952,-19.615299353965558,-2.7353029568366654
-4.305160702384447,-6.452822281812828,-2.829361154730997
35.23641226853328,-35.187517905118916,0.3055559374422114
-2.108054613702682,-9.991901137605474,-2.893574283002677
34.88397453232327,-19.729548222947077,-2.70910227376082
5.201558602947875,-18.74537731258132,-2.763796437109832
1.5713722609106144,-18.10037927013541,-2.80907492784956
-6.397183489274945,12.308981174465028,3.025794370168486
34.95832024081616,-15.982734491802212,4.980587786495298
36.48112972040501,-1.3183175154360478,-0.22399432955718698
5.743315630925468,-6.327937421312581,-2.765066670704362
-3.0886670188206775,-14.639874744436545,-2.8808319146526036
40.55426927363894,2.519770134919924,2.2461434326566616
35.015762576290534,-16.53148284724353,7.455587422822956
19.81300556089005,12.565727843439985,7.274539067416148
40.02951728586215,1.994384048439926,8.228211011121344
-8.80509854359083,1.8576673601247868,-2.6696082282988387
40.01287302345221,1.9935547840945333,5.190990736156332
10.847966603243158,-13.880504263693645,-2.7237599250888063
19.919237635898057,3.470563354247659,-2.8725722408554626
19.038811212134533,-21.50118960102037,-2.650747276723794
35.283821132993914,-35.2348609846117,2.756471500745524
-10.513633194169246,-3.0568120540532706,7.611081198986634
-2.5027298179738398,9.019337919749624,-2.6522354385597087
12.818248995075843,6.6618584975029975,-2.781458895396325
17.688296792526902,3.7574741769549185,-2.7958598651095756
34.92836808087535,-18.638434623369285,0.7288491815839395
-0.9964850640579948,4.991554286684174,-2.680663287029029
35.42394719079276,-36.253838145856875,9.11579384474256
7.779679266546726,-14.530480964387694,-2.7558405712872847
34.86693035678753,-10.550338061881584,5.632260152980861
35.20676932823847,-28.137498918607765,5.839723598811738
0.4455027923203379,-17.648330916735844,0.1083246584529557
1.8856881136274568,-19.010395312464233,2.2373019181309735
1.872677242747961,8.876243409707167,-2.69117856269602
34.981274527830614,-17.577663923997218,4.584909852762806
1.2029607636001869,12.301416019147075,-2.2228881951550763
-7.450283413369871,-9.806197526782602,0.37794927589432314
45.675883330793404,7.3818486331119795,-1.9885245185949922
-4.979995649060173,-10.89252172630479,-2.9220885758541986
0.222974843262698,-17.19574817708993,7.4970784166578355
-10.672235840036558,0.6482260080535457,0.19683633989723867
11.957855402924075,-5.290622357254016,-2.684482779042559
13.272347963038367,-11.432744261792811,-2.7084284729661987
13.203407042100123,-1.127775061513658,-2.7205156683144285
-6.994207769815121,12.326540150585739,4.778643628305511
5.361460665107216,-20.284566379453654,-1.4182807066796452
-10.723061665650585,0.25578715528418433,-2.6169135988206835
19.471648421429304,-3.364727261214872,-2.80734848920261
5.521607113343658,12.479926744835781,9.240159843011545
-7.883834315553457,-3.1591607592928868,-2.748102689432805
3.269599357501417,-20.23095381850351,2.655384274529382
-7.554050959555919,12.240412478246748,-1.6845292168953099
15.208271952784493,12.498786763548074,4.802741254455236
34.836417967482674,-13.410111382997847,1.1455794500783707
34.92996935167394,-11.039083407474983,8.462616271985278
9.094710898427124,0.6772151942703029,-2.705492798748572
45.704361112801024,7.386451032909365,2.5592971739462036
50.636154407690555,12.062444085339166,-0.3193976807401494
34.76638422344155,-13.383152230393911,-2.5182441397560087
18.70933250525336,12.519974047516232,4.334485782723236
-7.791090619294095,3.56203993532731,-2.6562051581465442
28.09337634627855,9.302436405288011,-3.098159662022104
-1.7640279181281207,-13.056307305194842,-2.8737298706113092
35.25498612225601,-28.892080029162063,7.621325535244365
40.426318753358586,5.519140039887973,-3.261519737281713
-10.565114555439928,4.987953915665392,7.100550948824501
11.113472638655942,-20.158702325381224,8.717597272316524
18.371221351306406,-6.305854323868255,-2.7594849834612893
-8.726441992543764,12.372340171799674,9.457775364929438
29.149274390544157,3.61576765271715,-3.0750449892750273
42.98040978048637,4.796647707270995,5.603643758423935
3.4748595081871976,-16.357889209224115,-2.7961087025560816
1.6205123363338676,-18.666415736891224,4.815649909747728
29.137758007415922,0.7355342902114477,-3.0514232433044017
34.75603194864959,-11.455084064147673,-1.1230757228385388
-10.517714171520067,3.90123487070543,9.322093259214881
-5.850565140406632,12.347792835051623,5.758171563649949
35.385692993457795,-34.47975754230686,8.885457247879277
10.201608418712357,-20.23212585560973,2.935925640591033
-4.429840262446579,12.353527783749842,5.341935731578507
-7.010009884200648,10.202334067882441,-2.541297881123006
16.416104667342477,2.4467485572542125,-2.7751327504847336
3.565549108040496,5.070164478282257,-2.7021627353916093
34.86036604423373,-16.98434791109599,-1.1900595930933426
-10.551575345331454,10.798771314024746,9.431406944955631
9.980564958059562,-11.554019598585814,-2.745829127973206
15.95267633128957,12.467421700724767,1.8687527957131587
49.739554306595686,11.205670960744401,1.5647273013194558
4.328451078844119,-4.015330428614118,-2.7482269416984297
32.29853170666964,-18.267283111523476,-2.96616407669771
-8.546465473529937,8.125606710909475,-2.5722330823413646
