-11.488439220742094,24.62409258691796,-2.8446792053014387
22.10840055874519,-15.339480637658033,-1.8189735214006844
-23.810461446001597,-15.729360749417168,15.479125104886922
42.178865005517665,12.553255980817704,-2.9747970171863636
21.891137501561523,20.122643349030763,-3.1129286536183884
-6.828917692394645,-0.8058731562244811,-2.2249207550818086
6.451156215183106,-29.451113070898298,13.143557862812544
24.28170373100689,-37.75605901664876,13.317030010403425
31.52262032971798,-31.083181278172294,-0.8150054339149451
0.673448392478511,38.42466832710673,8.382512840673774
48.87344455635608,-5.072964417768962,-2.7162153318725655
-41.88137092494058,-7.57029869031681,15.523462970077402
3.900104112345868,25.373359275316254,-3.0064642318046353
13.970759302427421,-2.4998217283850592,-2.373045181294975
-16.936188953832904,-18.490079442250625,28.709934231694536
21.265223360071108,39.28664476650854,-3.570984358449506
-7.556546268100723,-23.424743847583873,1.6638133239650947
-32.06978110330928,17.35885215761242,-2.46505181482288
-22.77141171559142,37.39405764180262,-2.9595601001344582
33.9634960700008,31.219726167910807,10.062424716128795
-28.25976197392431,-4.394874906452687,-1.9332615402964397
-20.5312897685055,50.312810438247155,2.335449284293763
10.66570997139442,33.062925199997636,19.962908291360836
34.2411981845672,-10.125051457640401,-2.413703100163312
54.157404256648306,7.7429771433797,-1.678950824285698
-7.5317597404247625,12.033330392641467,-2.553077419703276
20.946298666019732,38.69744422295864,14.836611533118262
-5.166697809562089,-23.788178811048468,29.293408670503556
15.56286740692122,-33.357141086150286,21.151417269411187
3.722304064376733,-28.529889093620394,-0.1765430915798093
-32.652168719832495,-11.942316011031613,7.583533078105272
-37.17370394181061,3.8585550718863333,-2.0659846160997883
17.574200994423467,9.001267947194997,-2.805222700259309
2.474201742369002,37.08850218614682,-2.9713189058789293
31.512975732469336,25.58619737487699,0.24907332497299717
-9.341130302011969,-12.457754288140357,-1.6301260794595762
-7.248913537229884,43.11996730571426,15.343083748615026
-22.79300337297539,24.193450259297606,-2.6570285943298706
12.692419817368243,-21.430509137160104,-1.0704552382353807
-15.503868816240006,-19.652651586017832,8.783681287142292
30.384565322428923,13.278028374176733,-3.060575106319528
40.23889647410522,13.607130754113088,7.639288747089432
-17.44222560877715,-2.9322189518016377,-2.0713855765555342
13.05991920003526,31.066856348924546,-3.1105261101120103
3.479443045162204,-2.9590491895127142,-2.2640911707129705
-11.169743346120088,45.607199545840075,24.728793822012822
32.54370175795405,-20.848368396824036,-1.661053629113396
-12.422577954280252,45.824497016420835,6.74529811917175
0.512559514876461,-26.56675592229324,21.00036407046504
-32.86814594820861,-11.566020258016943,18.35039328515582
24.252800312407228,-37.711116569836925,3.030861578525984
15.098330927634384,-33.42601281661172,10.392804949508006
-2.0322293372338516,-25.70882491922044,9.766565286936594
11.927117787596094,19.664207529287022,-2.9799859227066445
-6.405792182683394,33.11216509370466,-3.11290606653875
-25.533602851564638,-14.702292003403834,25.102092828310614
43.41261465703874,2.9731141327493646,-2.941472652509428
22.55016659500057,-27.773679779753113,-0.6586217802348926
25.485531438632044,-6.526252490514235,-2.428206927638912
12.543502858447734,-11.775668667127263,-2.014918494380338
-42.20561931221677,-7.095202160298372,28.218309791774146
-29.308372602716144,-13.673903154670954,-0.9925284881204993
21.10382747640465,38.98847236356606,5.7444128513257535
-16.210773052750184,-19.06168432583003,19.282056297606026
-18.274485256284063,16.330863397509088,-2.565784307110428
3.3922396553807417,37.1105378782172,16.792886572030937
-0.784506654647329,17.885522508313784,-2.767988062944309
27.790031702862283,32.67733192001605,-3.428986148702029
-24.39850634153098,-15.691184882482299,6.7013354549305575
7.479846287697918,34.43822873511462,4.1272198229793355
16.72133994492674,-33.65868239414688,29.703201876596417
42.82860291946274,-11.529255484070962,-2.451827437846309
-14.939875290666334,34.18742631707461,-2.982374905058256
-45.39315224372669,2.469103942598435,-1.9537860133565363
-5.451429721956346,41.78290722069805,3.8892321006041044
-1.9219175376412918,5.921986469555871,-2.4456439367851623
-12.99532891823332,4.726950105811893,-2.312130036479511
-37.734325703568516,23.525568617638488,-2.458125083408527
9.193434871764829,-30.889886176600438,5.388756731430011
22.965153398375506,-36.69093118798298,21.45615252373965
8.134407815139959,-30.006263436390615,21.050273522185424
-2.708907096324466,-8.057627720314864,-2.0739901022610217
-41.49934610108101,-6.97647031143386,7.568133135899183
9.08521504087261,33.74953985199314,12.264283103221592
46.1625403379079,10.111731882344538,3.7775672047967284
28.412248809153898,18.272505814532035,2.700320236989923
39.276395683238434,-4.076810209878495,-2.6692635165351253
-0.11385685087182974,-21.675181481681314,-0.6652041320431884
-37.7850683824177,11.679065019518825,-2.186241478820354
20.78264597535647,29.182265608642865,-3.3067529728274545
-10.613932458332162,-21.46001516229896,24.23696316849851
-17.641252187623003,43.23064879103293,-3.156249106890541
10.984835476779736,4.800363460808753,-2.6148155142878715
-26.844463428807842,30.68210378767614,-2.7558176781552395
36.83370313936987,7.125751123846452,-2.9989528351380503
22.285902954387915,0.42996787565243105,-2.610468125287296
36.027096191509656,36.53642993179386,4.736025192641189
15.779769603774021,30.02694353757673,15.285755704308084
-13.769092877638295,-19.845040901976024,-0.741266658510372
35.9574761592719,15.190630553018224,1.6776223518261886
-27.165458068100044,11.419845104914007,-2.355588304849982
31.166126516121047,24.676214529784914,7.65395642997399
15.880789942310864,30.219172706795224,24.35736873019773
-4.118752103344863,24.50028616349603,-2.9095793460561015
-26.63586778214346,3.0955800625137058,-2.143511954274091
-21.73907220377089,-8.871124209248869,-1.876866900325271
-8.868917758516288,-22.636957660695472,9.20732841121621
-38.49641569236113,-8.928944871888033,22.067677524979576
5.9639729261289425,35.863861099103254,24.61655775344994
-35.21442421955199,-10.952674672083642,1.131770406290354
-18.79897309064816,49.507423309009525,8.854448848294759
54.418619812022804,7.780323580169305,5.073893870999541
-29.52612595954886,23.886619309878288,-2.567261037506113
-3.445763576369865,-15.864763745923739,-1.2977433066103234
-3.7886181919085895,40.65463099414431,-2.7600723872468937
19.406937118166326,-21.639613058518638,-1.2492470077856446
-34.75486255064437,-2.3801877368454862,-1.9257321035175747
26.442602819999404,7.869836278314304,-2.888297013775542
19.346713644464913,-9.274982765149666,-2.246147186469379
11.621193679917805,12.078436981666194,-2.8025282869542636
-5.520930292974459,42.315599754353826,21.80961704643339
-11.672157598538535,-6.160289578788071,-2.0405857924194835
-10.127132276818744,18.09789975653086,-2.6871582043100855
5.7956101671671885,17.239007274360784,-2.8119648186797646
3.328108827465712,-28.202181793190874,6.9283994178704305
4.347347017525837,3.529723114434131,-2.441244166023371
6.519231097806687,-19.27861721738183,-1.1249964420450158
-29.38580469286571,-13.27339297875289,13.124902930628553
-36.7598144111195,-9.965230168120975,12.323436222995065
28.5948888833997,-13.279577969646862,-2.1312246351491337
25.97095868881261,-20.488346561326637,-1.421693567082322
12.129406002446968,-31.943002128595438,15.90462384086547
28.259105815193184,20.729183349817696,-3.234803663976519
32.03619001038027,-4.122239735764744,-2.5819777403499833
0.509336798672615,-26.399717534926594,27.395074908309166
11.475552046544127,-31.375962688548107,26.40381555091556
-1.7527292039003277,39.95947955525087,14.035236305927166
19.069318050051578,-35.08164611432757,15.684618862918068
20.75190953961966,-36.04002807681749,8.0073261112889
8.834817370504265,-6.291865207811007,-2.2267276695110656
33.891156038040464,31.15323018692803,1.9784467427087986
-14.585065387512644,46.89308275857572,0.9040876677644439
20.827591255776806,38.47813705752709,21.688128765378547
-31.73655476860302,6.8930534492968585,-2.1953411429883785
-19.43030413060249,29.41279780889627,-2.8178641125015966
-5.201557440763089,-23.948677290127677,22.48732756553272
10.954690981267797,-28.849369644494463,-0.18935217126519233
-11.815939876312477,45.805380600314486,18.581740274230164
-25.9976926062781,18.5146982368771,-2.551310791543226
-1.4223519333360544,-26.149177740219187,3.393217637777607
-15.81951170387519,-10.731630983093234,-1.764407788236885
-15.51099559863395,10.762000445207633,-2.446178227619646
-2.624350035310915,-25.283249671135327,15.878788804727085
35.68510642837746,-26.07963573515327,-1.3564417926276053
-20.12814758757008,-17.179087926500035,23.690080485806234
7.838347592225513,34.06765970910107,-1.9324480824190264
16.87511791627913,15.134020713644421,-2.9370589831450054
45.226471201564465,11.666604611332422,10.789867736617047
-0.27227689631356744,38.790620207880245,2.1443794370783573
-1.2551098719585754,11.887363211103361,-2.6072956416220143
16.71652101874302,3.0216073251671696,-2.626469971147227
-0.5651765548774104,29.293978846631273,-3.0673770748965747
-19.20622288974712,-18.094463518690894,4.412017798186409
16.00864423582337,25.677398301616545,-3.167832282447173
-5.474256132897288,41.957862023230966,9.774911383537809
-18.71877049390319,-18.073924810480356,13.70356675472091
-13.170997955280347,-20.559547929734542,14.431847549587943
-38.06659613870636,17.67827577593677,-2.320151170231065
24.736386454625983,15.063421191408143,-3.0320476976893334
35.9893706550549,-15.651678117173315,-2.1694725404459994
-11.76722774119697,45.616544340806016,12.726371648431337
16.83685243972277,-26.899876677148175,-0.5842286469843869
-27.802498752960787,-13.812038971778147,19.92652888614352
-1.2216343074458886,0.2653341119764503,-2.3046768507963473
-18.642281134208265,49.09477231051186,-2.9030068570118206
-20.618614940717283,1.8847283612664028,-2.1675760274749223
15.630232615065381,29.742393203225863,1.8573539164163284
-17.148139866923106,23.98903781999584,-2.721716389834208
-7.580313648699218,6.287927753617211,-2.4028746270172867
34.89847618668428,15.763433862948492,7.373076102052209
24.838183113107743,25.189333387323984,-3.265160765047603
8.805295750234208,-0.37064300642139497,-2.3807914510579247
-11.913554440298034,-21.378883094873785,4.712307513678931
-11.436876286944159,38.427835911970405,-3.2049505046891515
-42.67501481871926,-2.922599587128327,-1.838378348187815
16.224652628282186,-17.221527146445847,-1.5994001397552857
41.578913264669694,12.932209465286677,2.4070709092286693
9.217838584966678,24.405135946019882,-3.055249521336919
26.318880584936842,-32.415377440699515,-0.2562057581598326
35.11509987727847,1.9722522196597734,-2.811406024237867
20.38494772279073,-35.40272218665907,26.221900013508563
2.6804910950249554,-8.259372051926974,-2.1185525251149158
-31.069724649769448,-12.23612847118377,23.82541921617967
2.2203898601580123,-27.471429028953228,15.837286926120958
20.331106702770843,-35.30921600258975,0.25000677912050484
-12.127105410065639,-0.5319271433855947,-2.183083440913915
4.390380431028968,-28.23086176439038,24.340693194992678
5.487375024835046,35.69985158672852,8.812196927439695
-11.17160866023542,30.544933705404272,-3.0019348165743502
37.77624133392985,-21.051114115008314,-1.8586107346467073
49.69593001723222,10.248266481289688,-2.8049723005196148
16.454677744705503,-34.167918452008536,5.3878383000337635
-21.703227423766254,-16.333577058390624,28.88276018910922
-24.919014674012693,-15.597014738958206,1.263450800258879
-8.524928392399001,-18.962439781533696,-0.8935356689552373
29.41198048811639,-25.013054070918805,-1.1849059350982802
-31.15080816274888,-8.856444854918221,-1.7902451725576853
44.89667002890698,8.115331346926364,-3.0840986083537545
36.960733838103465,13.518145372872663,-3.1459257719025056
33.32496030122066,29.88664387307913,-3.0259108156818266
-28.683179515852867,-13.813322467677349,4.522965991601735
-1.2571919099920323,39.81831760719325,19.142045468772476
-37.68820350031967,-9.722035725273487,5.529668610158116
-32.22312323499429,12.170698386628223,-2.3284050292102347
-5.285614831213841,-24.335688938212066,6.075753570923978
-28.946843479047,-13.07511681261269,28.43513168920247
-9.669220756950406,44.14236833239354,2.4980239734288645
11.270548172908848,32.21005227109836,1.4666188142598047
-22.774991837278183,13.813931217425756,-2.458576694596764
8.248098821855775,-14.324547461645096,-1.7304826486713227
10.611553885084955,-31.38040090356682,11.169268176717928
7.440126063538042,29.05427992179082,-3.139859254770377
20.435141843482068,-4.176509397791306,-2.4427052681078765
7.521946114516992,-25.2736939506211,-0.4854545823083463
-12.442777101151087,-20.514373674766052,28.87241657266684
22.341160257798485,10.759115835553217,-2.9040537735722096
10.70254620862784,33.17711485634161,24.873037922952566
-37.257155686556054,-9.610842782774244,17.33884493256231
-5.5664151945629605,16.460957772320903,-2.6866516661394098
-20.418628138962482,-17.427008949117628,9.05125158517539
50.70979840068715,9.810183938782355,2.2198085971692203
-14.987095676046199,-19.48463359296858,24.281953640593482
31.846397349535227,16.80777765876379,-0.22095517725253955
-5.815460774443859,-23.92794907225028,12.584900795868153
-11.742481003421709,-21.071891673804174,19.550618934743294
-6.964862526528104,-5.798202643157623,-2.093538955211178
-20.559970395958842,-17.11604130577379,18.596393129874286
3.7853338002922428,36.46828291715982,1.575750608265641
-1.517803349636668,34.60353817562496,-3.19696445489642
14.120455733099888,-7.200852564057679,-2.251896618617086
-14.801585595110412,47.58922636465645,21.726744212284178
16.60235524535655,20.014711523129677,-3.0454646301774706
32.910401543322315,28.794051306610566,6.212554143560004
7.545935554069259,34.74251269827245,16.54892341423243
10.575646087134018,32.783733709088054,7.95773675223265
29.36394089796187,20.450519161300914,6.889819787004607
-37.599381548292854,-9.20853387292843,26.909265296040605
-15.673430837659492,-15.509630356858354,-1.2189164920134385
-25.4755577313373,-15.088137745036473,11.21299380529275
-17.02683405366179,48.38660612960377,4.734508873561494
0.3915200867891673,22.338800784581025,-2.8949342569766228
30.876367105420485,6.763352783132474,-2.9174463617919564
-13.251343917286857,14.775848096453046,-2.5716879491199647
2.9632636872015836,37.48692429932303,21.60817193941335
-30.102615600314532,0.15812504352748466,-2.0348997258642063
-20.23242116516694,20.446100036833922,-2.654948341553006
2.2303135422924405,-27.594208246402204,11.268658034673253
20.49556273053879,5.556148835539264,-2.75150939250092
-21.936623061190897,-2.5887170499824235,-2.0387916670366515
35.715503800834156,35.34224686971128,9.674454732532924
0.9733105027705061,-17.32937358401665,-1.173274350000196
-24.929463368320594,-12.00559778466816,-1.5295677787453779
14.736319397790908,30.73853168047736,19.5880730361587
19.272162897589233,-30.790719768023177,-0.22288843726548213
-11.271212250710965,9.349556181005454,-2.4485564352144435
21.026560231588416,38.845724236834315,10.204099557187973
27.86175862322019,-2.5468173697857024,-2.582351232502934
-8.426178508176198,43.55573923019138,6.859131142404256
13.19617445771199,31.39097952703863,11.481447897923802
-0.9652468102660564,-12.210905922036934,-1.7402232701637481
-3.8640509367854103,-25.13880395316067,-0.15606326899982997
2.943439106905698,37.23613239577848,12.085836700888937
2.799605595245053,13.69812252185842,-2.6919758547342774
25.102905439144912,36.180174658224416,-3.5200810462924745
-15.478955772831371,47.69516113686131,11.583869763131606
21.189155514499888,39.14611248163626,0.8194757963597844
46.326708138351705,-8.8773868595154,-2.6075129626790714
-0.7844359675943043,-4.09358482389609,-2.195103173133161
-7.686913201093799,27.03720989782936,-2.942719338723215
11.756194788345674,32.3201249603906,15.498035242155641
24.63526553773244,-11.440713438169418,-2.1712559081865175
15.496644786794006,-33.21520083665001,25.478501847722008
16.84780626436804,-12.95891365936149,-1.9618436631353815
-23.674581447972457,-15.639597453041015,21.314679649566553
31.649546933344325,-16.632480693448255,-1.97645191319284
12.829295203858276,-32.575881364207525,3.6653382078904357
4.411613199997904,-28.36739192961271,19.43817835647747
30.368640536744838,22.855058405843735,3.5081240036138497
7.129618474875482,-10.23708463682558,-2.0858754792229264
5.67834346189942,-29.351911646064345,3.501242967402375
11.978152981588126,-16.32924398732994,-1.6188305955337194
-47.153690706555,6.656679917737,-2.0466603623009996
29.614835486158395,-7.583671320062718,-2.4436957808903985
2.115132973597945,7.15301918599416,-2.51505027420715
-6.1427234310018966,20.6395139841307,-2.7902382232334677
-41.709106360746816,-7.539160879497742,19.729282588329124
-5.152342074931841,-11.460621348663711,-1.7851929267169637
-4.918119033787312,2.9830332558296813,-2.3413425010132953
-2.7622152222319403,40.33312536564868,6.759593350329354
50.03070937531049,10.317304490495502,6.618999689894178
3.417641813910922,-23.9043207661606,-0.44454994650575336
-16.671100374636335,6.768699563286915,-2.331368533154924
-15.587059256299472,-19.758103505996907,3.2608460696821595
6.905452837388604,-29.77229524723169,8.66005866631154
7.704859412608517,13.435920343678585,-2.7854848852594167
46.44573962563012,10.772728868199762,-0.2925565096181283
-4.462628119560755,9.26658765589341,-2.509334045372801
-16.121100914123733,19.85538743581716,-2.677557445397761
31.97926632045627,16.877902768881537,4.685318989888993
23.95041929103719,-37.240938866705534,17.39262811832534
8.167347987676264,-30.127773387357774,16.931937643327146
-38.03961313105173,-9.316351801703698,-1.683179491801899
-33.000634040287686,-11.612641687754635,14.240080348793073
-27.162154832324745,7.31192243530911,-2.2485458156910085
-29.036226923144905,-13.546932827220077,8.655621405019463
-6.579956323262686,42.31019163280556,-0.26273605663056354
17.107311735846505,31.60507029228198,-3.3170647839887453
24.270167509563397,-37.738121137887255,9.21151161208568
6.764345904965911,35.29978849015897,20.65325485262716
-8.706788458226605,-22.22314007819601,28.015251369771423
-41.40791349648565,-6.961099542701674,24.12796133475304
-26.1966173838482,-8.147883546965193,-1.8545115547563906
30.066737993832696,22.055153785863943,10.565885379623381
-4.8861746106387995,-21.23668693636352,-0.6687661625906302
12.052497625229314,-31.740462576644195,22.385709736955974
7.230208764330623,6.484229013759689,-2.6235994380097494
-34.50699957942179,-10.732645746151071,21.96252875175312
19.20582389478342,23.153282720271406,-3.149324734510045
-40.410654514774905,-8.333462237393306,11.691478164525925
-3.1871900719646384,-24.76940529653952,25.910385285206647
5.884479850007851,21.85952520800385,-2.9332201745496116
18.994149706392374,-34.943359615338416,19.71463650957401
-25.64372078713666,-0.8096544568688311,-2.0508936417188237
-9.562751078457426,2.5742469471029357,-2.2877513908852296
37.52097584154349,14.776812023170462,10.364480617524281
-15.666148652969865,-6.618336485069592,-1.9917253859798227
34.48017872703446,32.484280728998755,6.138105469129545
35.633141576732946,35.26074539984106,0.9228901389377326
3.4291924571082615,29.506430149601393,-3.1098395246298765
24.955120683536585,-24.607235436381444,-1.0755580338243331
26.099914392342978,3.731549607259289,-2.7602028762318853
17.651850790294013,-0.9601504241534023,-2.5115175412969366
-31.728974472081823,-12.495759530401386,2.305147465322548
13.074278368239169,1.3804285742177076,-2.531332023326754
41.42745600157807,-0.7260766289829993,-2.8008364258036287
-9.647758616467833,-22.183995750435702,13.121881029762644
-13.057489534256687,45.927159061217594,-2.6394459613717522
20.816903500208962,14.49793423128447,-2.970933622824117
-15.458339358107203,1.6045442721159056,-2.2079758532887963
15.623335485040247,-33.486747164534506,17.200343032144062
-9.147295809702657,44.35709914802079,21.081705938837803
-7.570628110045937,39.133315707702565,-3.1861843389981432
-19.529172350406935,-12.223468422553925,-1.5573956706235155
-17.725489847943884,-18.88128299633208,-0.15890888037121279
3.365752274960357,36.82077033988119,5.716693874481026
12.228973868570685,-32.20521583954616,7.514017821289722
8.102044920873594,-29.886882953755705,25.0964353464429
-37.11319815209491,27.828387993905405,-2.5642834973101682
-4.387601846248634,41.5557378181363,17.60978891491184
-38.22893210936945,7.8131825776014345,-2.1569617587097696
12.861573117915299,15.898123672966493,-2.9052338195438345
-12.392823388934096,-21.00919676503376,10.633627100772301
0.18929847225047702,-26.96888807834548,-0.16548517794096818
-24.990896065729952,34.06889525844098,-2.856146143197894
44.209610966678966,11.984797964398217,7.082081059871333
12.667714638597259,8.368382690652522,-2.730436291468657
18.4134000053539,-34.888636976981815,11.70305681544214
24.58497569689765,-37.21572829992843,24.907050657663262
30.68838779599602,23.69113197004583,-3.0990744038737077
-8.497881559246359,-22.498978778476026,21.004700924842446
-8.453576622876131,43.69736275954234,11.43924255209355
7.39997220750978,-30.214840094674187,0.19087755740251425
32.47500615789287,27.716956256053646,10.41653315941749
39.29892112662641,-13.750998600471481,-2.3015771096554514
-11.58319654250652,-16.69456450068603,-1.123247784259867
-41.52305168313781,-8.032940133038075,3.90362149741203
-14.581989484175182,26.82634970920192,-2.818219693569552
-10.59803265293693,-22.10646727037352,-0.4513283212010164
27.07304734551879,-28.736468538323912,-0.7268357822631224
20.041373325298434,-35.81534787046353,4.296650845072729
29.40936737860512,16.933963818158826,-3.132304365818554
37.004088599190986,-7.090933568984848,-2.5469083854302927
27.134348391158653,-16.91698375600607,-1.7676113501067579
2.2476932293504017,-27.80923572789333,3.267460561624671
29.64180817179517,21.188922884383366,0.22357341931450544
38.01516436155879,14.43512920090626,4.762256876172888
-5.222069928930932,-24.043119573067678,18.48241835320936
-27.457200094419616,-14.063206356183283,16.24665200519378
-23.55345093326026,5.115715848242355,-2.2246614045647517
-23.42812348444197,10.188826339378382,-2.358050612059479
-13.975625654764634,46.95801860176592,15.852543001138915
-25.04052480907608,-14.830485421035382,28.747798202003786
-8.62887778914643,-22.845804205028973,5.3267457199480415
39.245365732740936,13.810109514951362,-0.25528399709655725
-20.173586054348387,40.607769950895346,-3.065071432673192
23.993832971895216,-2.788526793216632,-2.528837604042564
-0.7516275017831444,38.95802107813476,-1.6746452999952672
34.00289462615097,15.864145525889096,-2.9993469246022935
0.6924192043565944,3.387921182138563,-2.403761068370915
-12.225332676627112,-10.177509745398496,-1.8629548659717143
12.746905640616948,27.447886614601202,-3.1682899998086316
-22.05684954793743,-16.59970863881984,12.43982828338482
-2.254642724162935,40.14294097750766,10.333718803441782
-0.13992949685901424,-26.638688983887114,6.8467168609746745
-4.075072825877508,28.502649861885047,-3.0143047577231155
-28.349390453911187,27.276191254927383,-2.659335740757118
20.312754247432263,-35.27734312822038,29.805306602068953
-33.137384535995814,-5.570737882251119,-1.8575227527390543
-7.056390226866457,-15.194511069279105,-1.3391847504402574
5.916045414418429,35.57565294589704,13.1541476878708
25.835377151785107,11.669686002275522,-2.967843533340096
12.403490045510456,31.658572855235338,4.830636564558852
9.93015113666409,-30.59768149269329,29.517565432548462
-4.247783279473335,-3.279246694975839,-2.1843128871063806
-3.2710580393573303,40.47065805434561,1.2460642187976676
8.820371490322106,9.870130245497323,-2.717544052419167
29.301465592314347,-34.33152135302969,-0.27695251479854094
-20.082213219200167,11.516191343063763,-2.423578784785276
-36.22689779988365,-10.299621151180922,8.70050223453861
14.77983637239802,-29.75059534310451,-0.2038354396482311
-23.579353655123047,-5.774862986937025,-1.9405589614261372
5.236330908113831,0.10102593022068132,-2.3600931370207046
-26.777950886712034,14.922228363041366,-2.4504601514575954
-22.254230484346735,-16.748255058748533,3.2618920768386395
41.871420063768795,13.02318729272269,10.698337257510994
-3.325029559484207,41.138412312890416,24.394857349178846
3.1288005895614877,-20.118697757486128,-0.8750529276797002
-34.482293357360916,-11.190860479384705,4.697355721363123
-21.73323787831381,17.145231906377614,-2.555037287352454
-15.436766891361003,47.565164932372824,7.731777749200062
6.949971051203625,-3.331876560681145,-2.2864558169227513
-0.7806146094211832,-26.190434288133584,12.988120120158227
-31.62513085420311,20.8116480675076,-2.559159411176603
33.814946765592296,16.28469269392923,10.634823542657198
32.4105297040782,27.661926518992544,2.880353690031865
18.19825146390735,-34.480986062078905,23.69527722831728
3.0530026646652777,19.86227322338216,-2.854986937103715
-7.296142703453039,43.40090873134435,24.575838148496093
11.77267600334254,-32.18834627973126,0.21030334130879505
-2.6124651683718887,-25.1687496791051,20.50789562655778
53.60160814819089,8.335964146242995,8.387110168771645
-15.737745720708919,-19.453345676122396,12.403260199188471
17.176255482270648,-5.3090443700943855,-2.3294551547268108
-38.51848580387347,-9.433633391105237,2.192212376112331
-9.887047842717779,-3.2087359101721975,-2.1340200365060387
7.743717824451652,2.9404467708774313,-2.4572815417382476
-32.655580877366695,-11.94356398521374,-1.494392544886418
13.064033031781621,-32.013975979984046,29.45817440621004
11.037886386495622,-31.367302893976277,19.107884375446044
21.378280790255005,-24.43448466564553,-0.996372991015944
-9.292464909150198,21.996031321112607,-2.7964788885596406
-17.824997519089308,48.736344431537326,0.9553561862990035
13.30026552458366,31.638590723721975,22.628864652025666
-18.844400680496523,49.62705765869907,12.263129724941338
15.047632013572615,-33.31377110199177,13.843598466416308
-6.291733292273746,-23.372380568914966,25.73709008618268
-7.748904089420338,-9.111666861476731,-1.9999256253704232
3.255145562089693,-27.583895739147913,29.53408139948523
21.490643299489378,-36.28586465150907,11.392561033868791
20.741286824450707,-18.535303023223754,-1.5376833478475298
13.496339689625657,-26.350441713982008,-0.5450363044295327
12.44895699124384,22.998947283425306,-3.062757216117017
10.745750024151581,-3.4664523023726135,-2.3180371910245796
9.966844688231111,-19.459406481256813,-1.208595883282533
-31.99436303055886,-12.148908778988066,11.07341520403519
-12.665948997630984,-13.491834047628307,-1.4792719923108926
54.287451564137136,7.761570230387196,1.6829824620109808
22.544727908560557,-31.53848374441884,-0.23787910001536297
15.012486492289673,5.912337990189772,-2.697771298103902
-33.79315102463801,-10.967206686523113,25.349365650332746
-31.09090773805971,3.613338033758841,-2.1158238602220516
1.8768968090929847,10.489417408285323,-2.599811198406075
5.442816439869448,-16.095452539490186,-1.3581883092798543
11.087835003732911,-8.747132090628055,-2.1835585613824247
-16.267988091345806,-19.128961500141894,15.68636219066333
32.182385193148555,26.791625847502324,-3.347327996636613
-4.925135552147119,41.73528433069005,13.030227666844587
5.278802520891175,-6.1849916992526826,-2.1966406736420456
-14.193017995635588,-3.661225932455187,-2.082420460641211
-14.000660187617452,22.368553373849544,-2.762664991023383
17.761186132664747,-34.677187350265115,8.498231952164755
-36.03650428417665,0.6315923321478203,-1.9923863625089269
33.777320353742816,-1.0067442733157508,-2.7012436042285284
8.872830501713844,18.50786306337269,-2.915974640257226
-24.94387719971428,21.74629916168799,-2.6452842083600014
-4.983814853722977,-24.38518718797586,9.425820215988901
5.035736786073181,35.67147253954802,-1.548285782462676
0.6769547244869003,38.62472767236885,15.724340155718378
30.822397372113294,10.003080278239148,-2.9909660924111288
-17.326456423669285,31.875319876414768,-2.9001043871156185
2.0123565007196613,0.3382979902646214,-2.3364744415616214
22.610632610687205,-21.22655218261292,-1.3328741659391221
-0.13843712655422927,-26.354583135654057,17.844688593139953
25.781054565452575,-37.01780656892246,0.27679963794508383
5.206937541803219,-28.8064832699663,16.34667360604925
-12.391321035146735,45.70919626299849,3.2013662966010177
-28.157160282466798,-13.560000715430657,23.476803692807923
-9.125868503859007,44.253193780844015,17.74879320408708
-1.0850087449646406,-25.776347389493264,23.672964719503895
-4.330391880673805,12.805799674267638,-2.602806047966095
16.18611817009989,-9.817519350891965,-2.2170508708135266
20.883041739353498,38.58057959544555,18.48765507139953
-4.727201030574311,-24.668933090371805,2.9416333143171944
30.14716319941065,29.83210009178595,-3.3902979014454733
23.04634487335848,7.479445388526695,-2.8376220610630294
16.19977601526767,11.883183050537967,-2.8543225124779266
27.472084896990026,-9.992757815348522,-2.3367902305492163
-11.050787275565227,45.12148979594962,9.537166062850147
-30.64959355570082,-12.507265666492067,20.678969568312212
-1.9942637902744653,-25.22853975560311,28.976716018418266
34.41116349012025,32.41926046479861,-1.4509025414855485
16.239867431288065,-21.57871083186893,-1.1607008124460552
6.671300253603319,34.814229079216176,1.0878620063237479
-25.298071706856973,-14.983019984184313,18.366895414016636
18.75899231395891,17.673121051486536,-3.0183495385536716
23.308853442555694,-37.240053349353516,6.241616453197377
-19.6536506438793,49.904143725373835,5.615061114805183
-0.7976495655398642,25.2634967561216,-2.9601735026334683
-18.58515166355626,-8.950287149913246,-1.9039591160218086
10.200861098529426,-23.34297846479099,-0.7817944128589684
-13.25754943817659,18.546376303259535,-2.669909420487719
17.87040844352392,-34.89043451226219,2.1669949470491447
-10.647248946862902,12.475016084728704,-2.535789629817202
-10.973891233866222,44.80751542703362,-0.2830645163498715
22.926870547446928,3.56551934674599,-2.717324144506683
-38.78236159146607,-8.995267804128114,14.521087986020175
9.593824230352956,-30.845524627565272,14.082448379000052
-30.26024113380482,-12.783771070938869,16.788601136623228
7.889618625996024,34.29049801920103,7.223735275777045
-17.344904889224072,-18.475881939922363,22.132581448207077
31.73809686440739,-11.987503554056454,-2.293357593480986
-20.37956344730738,-6.065357062071218,-1.962566860250935
-19.416439327553544,-17.413140247449448,27.059245480920513
-16.518678585447432,13.70236936677957,-2.5135036950751775
-22.484026289097667,-16.07230896337341,25.360106005040247
-28.48390188533499,-10.41779982397551,-1.6765860159415065
15.726273477784218,29.92514704783643,10.481810673113195
15.593506627450305,29.67250820590525,-1.4406349090324126
-18.708814753351113,4.304557293559758,-2.248303531896661
-39.02097710454324,-9.05061282063224,8.223626331705928
-13.962301256056493,-20.12350718921711,17.475644210788808
-20.957893109688225,-17.01625369239728,15.512637387550562
29.028063922979165,-20.6728286265279,-1.5316023549699385
-21.250979314498217,26.840045060707926,-2.7365796280045314
10.501760518868334,32.5546938211219,-1.890927099871563
8.374993588237599,34.45925057914893,23.38174442809664
0.2036936827087001,38.77761861122723,11.503868975636149
-0.27293244058215144,38.88401398861003,5.524414242124226
9.705070057363326,-31.2031959601196,2.2089373832305554
32.06656170487105,16.923975214558073,7.908758491948395
24.10204302217634,-17.614421404429358,-1.650235901955034
-1.1547200253987249,8.850441470939938,-2.529066289002996
-14.187325473839266,-19.92134691341878,21.359796398125727
-23.201106964244662,-16.158412938660096,9.533082576295419
32.85415214366956,28.74483744036723,-0.2678601972366903
-12.705105493034122,-20.946873800167417,7.59609341499078
28.332221401216504,18.221038530591215,-0.6201471787014288
25.385846337758345,0.8015125339792164,-2.6589856659213655
-2.5828999288223975,21.887329147748463,-2.8556703942604784
-16.13185676875664,47.7049957248978,-1.545471930736837
-1.203192277209397,14.886309762372148,-2.6859431372794704
-17.01281652144678,-19.03760120462864,6.22911406246667
-13.05242360462331,-20.93570665699139,1.9721345282457174
-10.966721344411617,-21.505106777765373,16.34495472333762
-17.848199743048554,-18.550448583017452,10.478313297017829
-36.33545546897944,-9.85019056305031,24.16455239141007
1.6073057014226124,38.184457326500805,18.944441641586643
23.261658148270822,-8.78594614279968,-2.295084614736015
37.0596611385308,10.536382988864027,-3.079825883316263
-11.09929685566695,45.319559351446856,15.732221768887452
-1.909848907011015,-18.399674624343195,-1.0225896449446783
21.346849184237307,-36.04307555808793,18.261952173354782
-5.548071681111029,-17.94957622985921,-1.0385612560972992
-15.553361914993282,47.924428084326415,18.377586401735947
9.647542720371934,-31.018237298451375,8.348956174775234
-44.06074734420468,-0.3092686704116963,-1.8936847877655867
-10.56170719420144,6.406092162917134,-2.3783938657278383
32.325018611430025,-25.501029509457492,-1.263565826543567
-2.791150530075907,40.75563096527438,21.51414172781645
-21.489002029361515,-17.014216503074937,6.331834462671411
-6.670030573954528,42.889383746054044,18.922285814442453
-27.84729268080127,-14.263006500460099,1.7295554891151286
43.97634524657661,11.92156188368369,0.8388191786396808
9.798031302686374,15.715756351671146,-2.8634108403608325
-23.40324101909813,-15.051109135106147,-1.1958729989268617
3.411166598812083,37.31759549279745,24.70754137344822
1.5856109155223064,37.66905840413987,-0.23134202651459707
4.83959860255172,-28.78822218571503,10.647629557238826
-18.293515009976847,0.09609340582328195,-2.142449029940932
-8.100866602102196,14.903088542988355,-2.6226167199726835
46.18781453890931,10.117268101586287,8.503544330394181
1.9150699680082766,-5.442217617239368,-2.1849059331035106
-0.0497016266469484,-9.46180901068568,-2.0638473714534005
-19.907730902468174,-17.85374261290163,1.4782220226393046
22.24763640373657,-36.533940383923365,15.009659073612255
17.70752519679782,-24.13982354330952,-0.9187765056422125
45.00401954303056,11.022017419293066,-3.132083271878519
31.550522960695623,25.61668293740949,4.7595549962828105
-26.068107356356194,-15.010060607476827,3.8976245949996184
34.81298388858863,15.724817501030197,4.473699407454541
-5.237777373576269,-24.11543878267897,15.4156577902083
23.478217137054987,17.669412079319567,-3.0762580638730364
1.698905308558337,16.36742298319553,-2.7513760471730193
1.5129110871860512,-26.936729188290375,24.152640065114134
-2.6498946496382145,-25.529349030252817,5.929266521457385
-37.97684617327958,20.556250633912903,-2.3871536634534003
-14.661631715044411,-19.553415856953446,27.29984965934291
-7.828757499852786,9.172686411439605,-2.4757692013903876
15.662817018345367,29.804397279461536,4.783429016904749
22.55668171436051,-37.04143892216673,0.7984171444835626
0.2051794609474149,39.06046951320704,21.812290038989737
4.2695337247921215,-10.841111837342646,-1.948167638274876
20.76897927096325,38.36985377324455,25.071077000414984
-18.122325490496454,9.241641802610651,-2.382410311931703
-20.48254535621086,50.19336015512533,-0.9980291446982195
-26.610291296700822,-14.890453782578849,-0.9358122643089439
20.465041659548614,-35.5418220475189,22.246344892261746
-4.0633259524460215,-0.0783948324387999,-2.269448274801776
-10.020550978811054,-22.28923056795568,2.55844221808669
6.173756510602097,-22.773798469319896,-0.7241368894854774
-41.24261042952679,-5.380937020945592,-1.7875432604274113
24.87252986595704,-14.26320943792059,-1.938163132244501
9.620939478438633,-11.84953073977646,-1.9777243067884618
-3.7092941392333865,19.17370348845073,-2.7745270694714113
-17.594796232027832,-18.28707474870249,25.06750829110945
35.03746748738399,33.83045660626516,3.2923157186916807
29.43497309854403,17.92466326294064,5.328446752302411
13.453332158341187,30.934507722904325,0.20698756916251915
14.229724096467772,-14.03135554730203,-1.844524271556161
-26.367051359415367,-14.754342794396035,8.561393546708679
18.993188786656265,11.566054847426154,-2.881388540922826
-2.1088308310946617,3.027971241201699,-2.3684835439615286
-4.710044729386195,6.258468158722631,-2.4286402170359125
-31.509474407973276,-11.964786731046843,26.637731832867942
-13.446788313317708,7.493330867985637,-2.380062366012234
-34.696780078597335,-10.791672809993319,16.374270310147676
19.492202637574778,-13.881703090819936,-1.9128877202041608
44.10258506617542,11.955784277861605,4.217576474178123
20.3049907814892,2.396169897670835,-2.649220498262369
8.642477948743709,21.2861593311909,-2.9767610380393426
-38.01576199600306,14.894168718409043,-2.2570256577074947
-22.769889859819944,0.11960720865606245,-2.1016812342731512
9.885902865277624,33.432438408785906,17.281480158472707
-11.839042213167104,45.894938548599605,21.3587217816198
-14.622919466574135,47.01478906670788,4.544498398252931
-6.031546979277834,42.18699371068224,6.588972798759757
9.799713371530649,33.14096023218951,4.909888627164948
20.997651993238048,-7.059235108024001,-2.3191623304859688
28.557490846822322,18.365913977878673,8.726648789876293
-31.116034057667925,-12.697607351288386,5.196084126589241
13.771921147256679,-32.59927391371274,19.195897680974937
-6.677145064282737,23.4855484768033,-2.8594798048189336
-18.664860869736618,-18.02187232690163,16.653667426658046
-35.842442503862436,-10.190317177088051,19.624423126234035
-3.2304809422799505,-25.10584243654947,12.162693701837256
22.842292298581842,-36.494638653811265,26.894832751249883
2.903522502536059,-27.499765040806817,26.652866461884337
12.717748440708593,-32.29264412746262,12.659014019712648
14.515767734431593,-23.83705771762493,-0.8565064424546206
-26.65815852687313,-14.490565862302086,13.673028823563778
-7.155502814155385,42.564316130639725,-2.9176295654240585
5.523198720396524,35.93291395426215,18.02079481006771
-39.36467287803252,-8.622684429088853,18.757824952438686
19.52990199569674,-27.320954997531473,-0.6182672093026274
9.010514957235703,33.47204576535797,0.6381521849782161
3.6773856245005403,-28.185608216571516,13.6578321447363
51.45257010690238,9.300347994620232,-0.9625839857703176
12.520287035996112,31.956684597897702,18.075512566488975
15.207634452836968,-33.66799857330455,2.95312102087941
-0.8253161524647513,-15.172994992917602,-1.402531939890925
10.436242710294795,2.1521560482202786,-2.4616250861030258
40.89991615248621,13.273631499434481,5.03587466939655
-2.2440404320519765,39.95417174064575,3.6935669901383106
29.343018380454165,20.435947672185033,4.18775827542085
2.040434424627215,37.51229297498545,3.4674887232561002
-35.67452321779272,-10.617436526279048,-1.5996794654712716
-8.206207779034548,-22.560502411226945,23.713813854918175
46.79195332458067,11.459903578904774,6.242126127295731
2.9170058619588377,-27.627468275675255,21.95613598450561
-13.928257773868104,36.68030962345061,-3.136370294999201
11.617560305796264,-0.9183440688054063,-2.392512868362982
35.86977982479372,15.153582273767167,-1.1950189298710618
2.9372099235333846,37.157329781440424,9.09377475314003
-12.754329870746721,-20.457573004746376,25.634331417519647
20.14278409657342,8.219722441042833,-2.8188916689738517
9.788308112074562,7.366558056004356,-2.672112257323701
18.062310014618934,-19.17209381124449,-1.456084027676154
-39.75987226349997,-8.199258290912244,28.220223879666978
10.971165571209825,32.633665418312255,10.674898549845473
-22.31332415126546,-16.792728212138748,0.5141195965913268
5.956545841956888,-28.884503134921744,26.402452469262823
-15.04928944104065,-1.0306510095848183,-2.1430708305755815
5.981020096173904,-29.003183774912262,22.245785636345786
22.138556240645016,-12.695405976602844,-2.040011489002684
-10.346002705488372,44.60594466863985,5.362639563970905
18.866984731339933,-16.448409000803515,-1.6919905239196074
-13.180234847239822,46.35889163114274,10.51258286967158
0.9432064069350743,-2.0881532931045546,-2.263345496674559
-26.027034873118524,-14.564078068690243,21.837200906050672
6.075639445541045,-29.462012258052336,6.175791928710533
-7.793986085250878,43.11888283057388,4.044350264093562
22.766796194433734,27.446157572427722,-3.2913825060328636
14.659798864372494,-19.479195990121706,-1.3476741553055918
7.905107514311257,34.357817077227885,9.989802019499892
5.054920927068691,35.80736656812567,3.7858667790252407
8.214659407955784,-30.30229610280545,11.016840525905483
-0.3725996296749416,-6.850044432714887,-2.1270631534660196
4.586372620274691,6.275593598651809,-2.51502490403491
22.044407240603274,-36.200207757434576,24.35501622693974
-14.405336923935582,-20.227470977216047,5.736653314119628
37.438213778399955,14.744218002831374,7.747276504022768
26.92446538241249,22.97964858247093,-3.2671864218669397
0.5183905514904461,-26.86898760856881,9.4300641517761
15.140086582709964,-33.518455157981236,7.5507294041916815
-12.329379216540895,2.206125622510218,-2.2525809324452624
-11.403108996709284,20.378160163626102,-2.734797768376736
33.570622248560106,16.16703023818021,2.0597532062836943
-32.05769616169384,9.479394427174165,-2.259785425512614
51.66592930471295,9.33891389683597,4.846023391867503
-21.176262367810093,-16.766600522422884,21.346953427014125
18.13871351660879,-34.36817703012119,27.013878331229346
10.315547110955064,28.359497070546567,-3.1592855659028967
-27.62890777779146,-13.725800488845659,26.28341982842079
6.1587186899992785,-12.788497060446222,-1.839175826058181
-34.298089875769435,-11.131079204370781,10.217510194746179
10.944678191630118,-25.906956513286428,-0.51775760787039
-17.148693392485583,-13.23862175412929,-1.464454942135798
-9.538231122866096,-0.5357181830450433,-2.2069168024641934
-5.279485003818547,-7.812160173054898,-2.056625176221534
30.864967647026134,17.27126430614516,2.3908455123490993
38.62294308254015,14.126087474478426,2.2733783639393406
-24.759569677188935,-3.2303892433366634,-1.9959704823038975
31.187243669404374,24.69293432986685,10.223971543733004
-1.8607625835855943,-23.539675666109897,-0.4347137100243967
-28.046558766248566,-13.933285858431617,10.98906605820689
12.789357997066992,-5.010733595935201,-2.2966770937256054
14.621765373146301,21.636120383944327,-3.0582524791419274
-13.083572337879795,11.69204109472085,-2.4928594248263916
6.747512421271552,25.065497991960633,-3.0400131626192985
1.042758198432722,34.985625102142464,-3.2305939978245086
-7.463903867861882,-23.137559144675198,14.369819128421286
29.07721803753029,19.725385955956998,10.894424544105185
36.01386275521458,36.52300940754785,7.28717119339822
-4.009195956493516,33.973670655371954,-3.1575159238324293
1.5258975078096622,-11.695360162182439,-1.8235769242620827
15.024053334002552,17.2331916625867,-2.96237828609182
-23.010144425041933,-16.025417061825078,17.99856870280613
2.2143656830021783,-27.396895831804446,18.610675818320328
-3.0841537862209654,-5.5345164679988565,-2.1362861393259096
8.081608491615137,-29.811496903048102,27.651494211362532
-7.171081307921919,1.742863206982145,-2.2881905386676205
40.302364685170566,-21.179712428053335,-1.9567268489441971
36.09346755085952,4.709126646834974,-2.909642484694765
-15.460071778197136,4.161777531433568,-2.2746141361593537
-13.30723549350656,46.80559150148668,24.12056610476869
-11.983434097894836,-20.89700244491893,22.103876099017434
-7.273981665164211,-3.285614199478036,-2.15617201416476
-8.68522610606189,32.03812600322965,-3.063839598182847
-9.10159124958194,44.1354684336581,13.972584914755977
9.987535157040934,-30.77449833607225,23.689478901861026
-18.605008832785334,-17.96408214159197,19.92895522835466
-39.122880209073976,-8.569720648895467,25.018716339743154
13.949228463468222,31.02799138737819,13.847345099928816
12.804940558459178,31.538177658111554,8.748520843742787
-3.3884249873709753,-13.232067203744553,-1.599657912526883
11.02277151041698,-13.921790598687291,-1.8590120132321326
5.121386443760777,36.27818602399271,22.26661117079494
-10.52303769656941,-21.950035071806727,6.897444784764686
-14.23266774638422,-8.667097327833885,-1.951575865712121
44.45251313574357,5.245792770750232,-3.0257445512961754
-23.605310419129065,7.614794915822617,-2.289320511512673
-10.058386963632449,-8.16666367242568,-2.003207724483774
9.10121849019564,33.80898908332856,14.75501922980126
14.612465887876931,14.109078896993644,-2.885784766263627
13.665627072314123,-32.34766706617083,27.059608338205344
15.853136103088982,30.166550882157548,21.874057629338733
5.267257000626787,12.97309318214349,-2.6958895229602255
-15.79677282564284,44.89103625631604,-3.2169348675303353
39.88249270421639,13.48660973780597,-2.8459426191329578
-2.264386815915326,40.31643032724083,16.43638489125449
-42.11227028522625,-7.612035077788421,9.886081516286723
2.873852521069861,22.33428702072427,-2.917763882267793
13.477268329453851,30.989546404877434,2.7013238460469458
9.510574223782509,-16.517099855190505,-1.5235541081121198
22.679271621565587,-5.218087054592622,-2.4363429109941532
14.076599592258738,3.631194682048176,-2.6144647235022487
6.83674762621991,-29.476078347325775,18.901908950297543
-6.958434215003796,-23.532238429309075,7.94007972419512
-19.263921732829335,14.078592216924898,-2.49793225928147
-17.682065945275102,-18.835027631762305,2.3845009002630553
14.959751035071436,-0.2621914703513497,-2.5016910176473846
-13.137619149446804,29.08521664904167,-2.9457130115161565
21.471348779501078,-1.9626759661461812,-2.5250706484729046
-10.588368730610977,-21.408328571428402,26.678744324465168
-2.0885603403352886,-2.016611217369547,-2.2371838620636564
-7.7601145362412876,-23.082413599520017,11.335292096159232
10.303781404925507,33.335638112462064,22.396060364737725
-6.705640975003711,-23.74513267453351,4.125521395304082
-23.29181155015393,2.7069389307758733,-2.1642952793133357
18.246106560377218,6.673393500586436,-2.760176157697783
-36.41014100451969,-10.351718783076016,3.49382595227309
33.38809245735248,29.94326234314471,4.139474642693541
5.0965654656547335,36.102362529531455,15.365135416735066
41.48458987148208,12.902872241622022,-0.26657762885977515
12.752449978776026,-32.38075755608653,9.861134684287066
5.888035341883848,35.40721667645071,6.455219955146955
0.5943535752318048,19.941182330123443,-2.834315361321078
-39.86517690396471,-8.732317964834813,5.797955826682687
-10.636634321331108,14.879900968387753,-2.598571090561235
-32.21731415955343,14.961846401955007,-2.401210016767719
-19.15609642890962,-18.047238646723514,7.109723195907945
-15.62451576696203,-19.80558325201412,0.7741885154912073
11.363425228128,32.47548521699406,13.029967417362148
30.350679310085795,4.339288771492266,-2.8298425477173574
31.774603246181385,16.76988642374787,-2.8719996776825414
3.3560926382210723,-17.347970451953042,-1.194427997400087
-16.30810964629797,48.22620930186772,13.752675022481382
-6.170776392280819,-24.09736919845251,-0.15263251779719852
-14.840608550749002,16.54795007763155,-2.603186252621756
16.965515660632462,-34.15018803247319,14.978641917119688
-13.94957935586579,46.87050319326741,13.210591799972676
1.0421836138087657,-23.760153431651958,-0.4378414158356201
-14.633548519297035,-17.641247151085253,-0.9850795345742637
-2.5335938721455507,-10.424574680114091,-1.9293730861886813
-9.343025436458952,-15.83896208434262,-1.2430740973916283
-20.03871785303585,-17.53232543271969,11.607453636321535
7.054622864604838,-7.866223718575696,-2.169235461896358
