-32.92252522260305,-25.00817369123883,-1.776865108829275
4.0750766141995625,13.395780851337669,-1.1192644268607421
-29.508972683246817,13.544198536246894,0.19922873288642026
-43.46921357166657,-15.514968944404187,-0.8497071259791402
29.41291747391959,-31.712451978562466,5.60435658706388
2.1484110148442124,-35.42501378646325,2.3990540057750604
27.634090862310913,20.991043044586565,-2.345817152684932
-3.704031485542509,-27.112408629562907,-3.204726736214714
-46.23132499498363,-14.606005390897725,13.097515000708349
42.606520184804864,-5.820799413661822,-3.4374576913093584
-14.84052303065266,51.32607814297282,0.9836110942829769
-38.157413819271056,-37.173643960039534,4.916952616336365
44.07385738919496,11.5794577921427,-3.0804065421413287
1.436214632269781,38.17692225678723,9.320840434417773
12.48357341604551,32.28677947590359,-1.06234257440521
-34.647627225119464,31.452462346539345,2.0111245859732994
-33.427615395430685,-28.081974590524187,15.923852586881521
-31.16992070344292,44.331928065617056,5.001995619198941
-8.251658431291812,-47.33438067842118,1.4745642391070586
35.555456375256014,-24.434943054022863,-3.448648270260977
6.076561102891511,-17.708536928243543,-3.1303801175227117
-17.74468176940834,40.116517616917655,10.702202041764437
2.6370002739695244,-7.684842782072389,-2.5191396663943793
9.483098620867796,-37.98541199800663,-3.6136459596572155
9.011306976771937,-0.2283087555691944,-2.5542130740623326
-5.573203701522828,12.192998740147816,-0.5761760473933889
-19.604105186850262,13.82985364348711,0.1472110446667894
-6.8276992350242365,-6.332608852581544,-2.151257304145966
39.37124596154712,3.3592481321341556,-3.1586389344025925
34.775082374589175,-12.473592048160599,-3.4099643700547912
-11.007016147337358,-20.55376841329743,0.7155346048753322
24.032280745672505,12.444808324621754,-2.4979350438370416
19.893244278841077,-4.227786213036793,-2.889367398153302
-34.38095482622438,-28.882858929864554,6.379384044002671
8.477415391695773,-49.085765499668796,9.590954763379488
23.99120788990119,-12.471448243926735,-3.166651102825657
13.05391379453229,-32.71690607529911,2.815767155696562
-18.472249356224086,40.413400476748045,20.02378516274705
-2.4425141721682184,40.274462207113785,-0.24757815366407435
26.870644268203854,3.964281858282632,-2.843555649944309
20.161846325191725,27.8479450522457,-1.900528720762819
16.548674533760785,-21.23959632287565,-3.4887905363433465
18.159374805841804,40.880054819390516,-1.3727878602311916
-1.0952839700456187,-43.23066829483456,4.527300086630905
-27.92362845996306,36.760635687755,1.9840121767789365
12.217223803464275,11.331328013822976,-2.3673406560218093
-3.246578776905825,20.279152702141722,-0.12601741633515087
-24.647784242868735,-29.985277922364393,-2.145692785126183
-25.969130869290233,-17.322482984518928,-1.72562788900693
-11.675089792489363,42.317837820285554,0.2693632169023954
-17.973177029476616,-0.8687925292269082,0.7733512237622483
2.558794472352808,34.320687061848275,2.326443107164695
-16.478886530058983,48.02337468720983,8.489205963560993
-0.5629867285100616,49.01651669412994,9.438329544085047
27.585048720330175,-29.0191622171201,-3.6954983327071784
-35.99302572012607,-18.63852669043107,1.7420062816999982
38.01593765981669,16.2607154266644,-2.795006912693185
-24.028239823117165,43.73784952447372,8.34398106586875
-42.10772749192976,-16.20469927495644,6.975849130218355
23.023511318357865,-26.733141236006478,1.9503117787754694
4.971027676889479,6.047506947583853,-2.3223540292903997
9.483504363192448,23.660198496190795,-1.0955079980629343
-8.533637799340847,0.9531591622279879,-1.762841242545431
-24.799032690767,-8.17086092998494,-1.4433723295252268
-11.00395007156489,-13.726851042194886,-2.060378662336812
4.340798718816316,-32.15045542621403,-3.799419311916486
-20.833628046176294,6.3377141939006405,-0.6682978091946404
33.19649593529222,25.864804516213404,-2.32633864762056
3.022092843702542,-24.662163542447836,-3.5299784766280236
-0.9813970586973412,-38.735571660291875,-3.097384012871291
34.18396031405568,-35.96114328578587,2.742748071312109
16.03624837795971,-26.802658930958916,0.9585385595470783
40.88217970631752,-28.840620705522205,-3.3820096327767795
14.1271662154256,-31.93817278455144,9.895618068017589
-32.798330444470594,24.995312756624898,1.265534617753498
-16.67763815620246,46.72673322652148,23.09413744267423
-17.326350521923732,-16.069981544474924,-1.8890202598263817
5.282994794236438,-43.11253437526216,6.715605801916398
-27.854587326157016,8.101442032089533,3.7587389069375754
-31.739025294431976,-22.902951562829774,5.071412229067392
26.78835822956833,28.092405593181603,-2.1458132865434827
-47.78374556497334,-13.81628603246249,3.976134288082946
33.50924179385558,0.3848755416484894,-3.0930943700015696
-30.89690763079872,-30.84833277685254,0.8037830539207611
3.226981248132649,19.95554134509346,-0.6203761142807258
-12.001557723889716,12.625504271486282,-0.10688636572104211
7.010112875262245,40.21244386195685,6.8250191199088
-23.89245462944724,43.49068400539674,21.632363899426228
-35.97471848540779,-33.366118352313975,10.702336241739468
-31.33080528323235,-22.60837909071536,13.027164654960972
16.516943895201543,-14.628099086208783,-3.134552815340499
8.044590978267882,-38.14775424505479,2.6354198392544634
-24.123934681866544,19.33863578419845,0.5692029521858106
-1.0741264402367576,7.955599067345537,-1.8545127996271025
-5.446535728373074,-43.875207600283865,-2.988633698630692
-22.008360652874007,42.50054224744004,14.839735946425426
-51.84348290296141,-12.268943611599594,11.620492743026587
21.721687525649948,18.70747302703971,-2.2915489584228483
-35.30430875119583,11.214921870832343,0.22729459824113607
8.953137661144869,17.223066855930742,-1.3121516543642304
33.1120763004391,-18.792183636129565,-3.514126479156388
-7.815081858366492,-52.40094655662698,4.890081305702597
17.87902903025122,13.581031843579582,-2.3505424946992615
-12.469563540809549,-3.605474090463059,-1.6818936272768785
-7.382160095975749,39.82358727657732,3.7383220324318502
13.715054909665623,-3.8070852964573603,-2.7405653054971677
-40.77796219346244,-16.853213243034837,13.089576961330405
-25.087741351727882,31.39673888967566,1.2333678748849486
-38.3551516747342,-12.637372360068422,-1.23933675736035
-7.618567958552699,-31.968388519333736,-3.4405191378373416
-7.128587466023789,6.632574121696943,-1.7511277854161629
11.674396959591471,5.510344026410541,-2.4856145869721713
34.93478875357087,-6.532787596453034,-3.280361280830199
-3.6873942546862337,-21.15217502227812,-2.7820695517427243
3.5354130305182894,-2.0064622434499526,-2.470556636216371
-26.218740112685627,45.0676620785913,2.240841399571475
1.4607913196052233,-13.267665619695638,-2.5700115525451586
-14.184292629736614,43.05014363044507,14.05398552148344
7.255780169956553,-12.12716319863484,-2.721001450465435
43.2832600883551,-11.444578022696637,-3.578821123832497
11.725299074176426,-18.054135110927373,-3.328429438985489
7.959493646460966,-5.762654566619248,-2.6545781144916214
-1.7024527295771594,-4.100956383446248,-2.338469999986396
-17.762864374308137,46.156601851007494,3.343156342936711
32.50888447758058,18.382288680158624,-2.5245199724027776
25.066954147040427,-1.2512289694445786,-2.939336271804988
-29.96525362702884,19.0083305895628,0.6532858947181511
29.096881292845833,-10.436858875305608,-3.2362061665025075
9.525199213395455,-32.94298443150067,-1.4738157334354793
-1.905874353004269,39.427844957375775,5.114721490330909
-21.559478074136308,-12.542526648158283,-1.6860559768144097
-1.2001958659000913,-31.90315934392889,-3.7389369525591585
-17.786626024213124,40.21134363063098,5.149425667784929
14.107734218694272,27.138915856142752,-1.3145538563112997
20.123676763676936,-25.18432472622257,-2.576902205975281
-29.97797773383213,43.76853847798189,10.891227993849153
-24.991947875445955,-22.615594686762527,-1.8632251609574781
18.631504774453674,-9.685291735514609,-2.9832739474143635
-2.3988763153836987,-9.544986197062183,-2.4011669571541243
30.3821300914844,-31.186168131860015,0.2671557611827399
21.833635306683295,-17.50264733382604,-3.2771941772263067
-24.875259740851895,9.970526423347385,-0.1644390738711549
30.831536707728212,35.685518999055176,-2.026825792534866
-3.5652809041494247,-47.82052311000283,5.020257421309596
21.440457062123325,32.89969846631129,-1.6877147973615223
47.39971752738358,7.588429320298098,-3.2449196406624137
11.067477868720719,-35.03108156748169,7.073545632869816
29.08492220363996,13.728154685691885,-2.5709221837461684
39.912477160487605,-21.374050332371144,-3.619156821460905
0.8869068152472771,-18.347916979987463,-2.840133561162226
-7.958825229292211,16.861830153151747,0.1144103614806543
11.823053628242878,-45.00103449313204,9.552199656603948
27.247841178184764,-16.36087793751692,-3.327324499606796
-21.66691130846859,37.24347672466587,0.7932341384025416
-0.8609447546721783,14.196063785241964,-0.6112379110591406
27.968779035058823,8.836262802487763,-2.7072789031286506
-5.9003308219776995,43.701248406108796,0.8118332179454035
-17.636283521217553,39.871454882646155,25.05246846886009
-11.131804849496351,42.36999592104952,5.676292496478846
32.5095890730335,-28.791857212182027,-3.4713521350396124
8.775172219698202,43.9351032097563,4.1352877646202515
-33.33077155207109,-16.23530177662694,-1.5933878852540704
-14.227947499711298,1.5891814063278065,-1.3214005038173686
25.254542960652284,-7.3452251669336315,-3.0802086211764563
18.269133174818847,23.371798262828012,-2.0052783413551287
-17.585095888061336,39.75573178239762,31.82892644511229
-36.29397690798083,-32.84297308126355,3.9127429714772513
41.27343675082537,-1.0456959247902975,-3.30031745160251
-17.1859441700883,9.476664994921286,-0.361304180389754
-33.61144276366817,-27.53997561909395,11.168250601485761
-0.987925453992706,-38.99324629009562,1.6763853953948396
13.628052149726988,0.9944866485319973,-2.6309409687213954
0.03501717818913113,44.511592110629856,8.005142560353677
29.040791677603135,-24.47472113393899,-3.5054171255219426
4.429265397088912,35.68046709060675,6.466169048306992
31.48474212311547,5.040530887785276,-2.9430352865215808
8.612981528003434,28.312992355461823,-0.9082196687471582
21.07336922242128,1.2780307957037336,-2.7355417174507393
5.729028835039675,-35.7853169641763,-1.1122091822863325
-18.388347497643853,44.492366425676565,12.37349327748665
7.629553244763823,10.270365345241071,-1.9781395482466744
3.4605402670930623,-47.42187669969222,7.351521166064103
15.908840715116739,-29.81975197413639,5.225609715034677
19.25174847547007,9.086872544847662,-2.493175268644735
13.997423696898238,-25.47907028946133,-3.0434406698054337
-22.36558689975959,1.9437358302069174,-0.9648490226870418
-17.709483237762342,40.03694208362741,15.361948074501502
11.92052421902923,-28.842849070975973,0.19149913270175598
-7.353394981480023,-16.020965069059475,0.540987708867497
-18.307523828977104,44.29680582499457,17.4824416723298
-10.573240071664447,-9.106042208530463,-1.9824506222057803
-39.15667924345087,-36.31734865279149,12.33740522670744
37.01575402565122,7.332623607922899,-3.0164114505973556
-37.937456402636414,-17.906572561225744,5.960023084958978
-24.17558317193122,14.516150573460013,0.17302839913604712
-30.042219708387712,31.604078568748285,1.8740297511204524
-4.852862178813149,-43.447694535412644,1.8789021287663334
26.672948138664285,-29.47563125351521,2.6871810307745156
-35.71915563412699,-21.970747631469365,14.139538372614645
-18.839062748506933,44.04385761786418,7.406532723776971
-39.11506321103475,-17.30170987666683,-1.312602125638463
-7.794134884731449,21.837292431897875,0.14227264514034277
-6.832773871803765,-11.702524821686502,-2.26579903908365
23.08691694606153,23.050620639902906,-2.2053236628014234
-33.608384700320634,-26.854969414937305,2.378119855574276
-28.126828422967407,42.16654673044828,20.63164547935437
-48.81141313615344,-13.466605588003569,8.466296035835997
-26.28825985799067,-12.804919061357475,-1.6164305965200172
4.253857116027871,-38.63574013068007,5.036373207374824
-32.58468519961614,-20.59812864204406,-0.709685851614301
-24.276572392027756,5.785487637499554,2.3034698752409626
-21.90512737118773,42.30118753316347,25.83922098875008
-26.102818264383078,44.868402821114714,12.664516792451586
23.691675680491453,7.806005564712003,-2.611458873643727
-16.966745723987547,-5.132233575349009,1.1982377149747718
-30.57747339879765,9.301850198326195,-0.19611277548594
-14.227780511382761,47.0358822546226,0.30152706582190514
20.168630376663923,-24.61500964644357,4.521045976965868
5.126729115993805,37.52613207215859,0.23239924938452947
-4.338534833598589,-34.94957639102122,-3.6869786445302055
-14.397975672788862,-19.886771723798546,-1.962578784591651
6.646574547326085,-21.9730334998131,-3.5493339899098837
-4.6612039304486,-0.9233596581084123,-2.1413003534535604
-15.521102641527335,15.16861122084755,0.39953672829821935
0.028068226463975714,35.6785301455575,5.9655391433748255
25.381703285725656,16.484204876533287,-2.4192679043469045
3.914090976862452,31.530419103215024,-0.5849256718542745
3.215942288009134,2.202665422600883,-2.3689721234977714
15.156400395840494,8.085941154745045,-2.4405530672100033
10.774818719486825,-22.827887024118525,-3.586290345894855
-8.197941824356166,-47.02624355148886,-3.226813545899465
-20.82271428563604,-6.860731413773568,-1.4820045969467575
12.294152318795152,-13.925711058888174,-3.1059697798280435
-27.30553584743411,45.6379164874824,6.228431023170733
-26.903465931059653,-31.92264971002972,1.2811986260705237
1.7237932191058551,-35.66103488110125,-2.413423422125812
-40.57634856255445,-16.769887904258105,2.967898493517856
-32.111288071626134,-21.41955554968222,8.916972899102502
-29.004896471761576,-0.33314019185222005,4.121017048495817
-4.8164087381586755,3.223705045111222,-2.1139359393596977
1.7334575105520322,-28.582871613142828,-3.7103529519664966
-0.4229954195934921,36.82815419275794,0.6780454723606834
17.561601944557875,-0.8765957353250836,-2.718627438118287
-15.529530896579802,-12.408959281283035,-1.834763741169218
2.7883637928135845,9.587024440386942,-1.7956137186274077
-17.36992387383485,4.139525062005096,-0.9870914057761001
-24.96688015027177,44.15366534020621,17.798903437275143
-3.8583539410882555,-51.75146328348003,6.077621562619002
-16.004905051934458,48.57580700449836,12.47804371900379
3.746500596788322,-51.34056408638843,8.60709341800405
-9.199568359855201,9.918800815801328,-0.9144832129200999
-20.237596362667844,-18.770127017867605,-1.8658447212721307
20.754413190489213,-21.30366163556463,-3.4832028550641874
-33.58636915070142,-28.92574963252747,-1.3603137870075117
-17.819397662279975,40.28543253303726,0.8109631431505199
-34.30465777317613,-19.397716421043498,5.598884303944816
-9.313258064742962,-18.46607865702874,-2.1651813923031176
23.10711208811315,-26.830212058714782,5.920475041126279
13.059154318801227,16.29061063576124,-1.927108049119482
-35.56575969188333,-31.398817994762357,14.074277994037097
4.997718108678528,23.51604886409717,-0.7378078361486088
5.969291114974471,-28.306603913909065,-3.7484176307398474
8.557558760760791,-38.249271554203915,6.553479505133112
-21.122059890362,42.044654281593246,10.86957701537136
7.893145505145308,3.4913637441295178,-2.445586158015542
-16.67110274629192,-22.441460255877676,0.514667996769358
-45.29982514162386,-14.925524555748149,9.183325854205409
37.31449245616027,-30.672370673797285,-3.2651683464826577
-3.076686925005057,-41.26709287568708,-0.7618294776115098
20.98413588794629,-23.189062131087464,0.5757506394264377
15.360457279092206,-7.279747926477856,-2.842138423349953
-18.5806288717584,43.439664881574934,23.41971656002257
13.639524722618129,23.360479889598402,-1.4953580014410779
-27.602383502977364,4.1166219455345345,3.9648618168882126
16.227007010114633,-23.079125363742296,-0.17311371264760608
-8.450886297633222,-2.8998627706648405,-1.9488187535351131
0.25374488840929316,-22.092333493686645,-3.1388797769774786
-44.34957928866712,-15.218249227879507,3.1695242383745064
7.844763175677949,-45.42259495965769,8.2899130621771
-32.844753070946894,-25.59074666251707,8.016901132482413
-37.91482177423873,-36.9373063939696,8.850520164409243
28.4697049815566,0.3269931678179146,-2.980709152229962
-10.702661627949094,3.9878767889417976,-1.4799069558715217
-23.067092414116992,43.23727837062595,4.523202301990149
41.44357350215514,14.221073583237036,-2.961841190982894
-39.32077765630176,-17.392703252549836,9.378262152553704
31.542517319984523,-32.37726405229421,-3.6132919473951044
-3.6113123775009752,42.32550328702268,3.395650285773208
23.681662380588783,-24.912843517542676,-3.5984834172150904
-0.03736490433522226,-47.49587108472624,6.154151021411789
-29.155375708964048,25.82122500823369,1.195215722724202
10.651528432730029,-35.213084485864286,1.5811054899691546
-4.13696633242129,15.746165963207645,-0.29972242242083735
11.819511893249842,19.684529406116727,-1.55207568059573
0.6531039632249146,4.78052673084863,-2.245899817044926
-37.42767716988229,-18.230890116117088,12.908309235390572
-8.543684208358703,40.51447319177424,0.2540642766084164
18.221689882449187,-17.80786687630102,-3.3012979619836504
-28.373094719287675,42.53573870388257,7.905415637247808
-21.971486649738182,42.42933452993557,18.768653436190586
19.966411122494794,-13.011942367645329,-3.0879778389436927
-11.66203441917734,16.161305864853034,0.3669018006082625
-4.8314240763842085,-18.272389290418236,-0.5800371785069323
5.745250343709442,38.522508358996035,3.594938838967881
-28.529402959151913,-31.42762267046083,-1.8242191368715779
6.731204244746054,20.32195657050651,-0.9200592823214496
-5.512610190485927,-40.35066674873485,-3.255457361062932
13.430138558134507,-32.49550542552517,6.323570949774169
-24.06735154434947,-26.512284329823657,-1.979391519338751
8.020005919548229,13.735902885779158,-1.468102381028227
-4.48410115258987,8.92585683891382,-1.4191294940109047
-16.72898225467713,46.87058704861019,19.54871949007573
-28.458987308247277,42.66450522571362,3.4667699712896813
34.42607341789203,-2.991881800178014,-3.1894907343805197
-16.11129814666296,48.89871616387,4.7520040672993575
21.849623974745562,-8.141302726833088,-3.0212494449943117
1.070930953978729,17.210329368009013,-0.5291935892789734
-15.484352238348306,-1.8974470754903294,-1.4398902925663963
8.444182026163094,6.918851081724393,-2.381164834348603
21.36471903638762,14.633138181769572,-2.3901502796175276
-26.09812302726145,0.020531339840106654,-0.8009319394235048
6.226710395936328,-8.856040411023198,-2.64127370914357
22.395761084790397,4.436480919284634,-2.67381534923415
-50.672358219227895,-12.650408277001103,5.467741085181583
-52.813000329876765,-11.815920546735892,8.367432392498374
-33.40090801107379,-30.22499092559449,3.0450335616577533
-24.808587454829027,4.324805498794757,-0.7728390096023342
4.79948095987853,-14.566700650351281,-2.7582677700019747
3.534089074823668,-20.463013733132097,-3.21068003908006
17.124453131466712,29.329133612304563,-1.4596326634316605
15.471139226631333,-11.201068192923328,-2.9531436370844775
1.1295554000301509,22.629362099621947,-0.4171218081677309
18.216968884038568,-27.310106144377574,3.8446451140681988
-31.91246166136561,-23.028103632695355,1.6913310005268218
16.268619773823694,-29.613257103993192,8.684063282794087
26.49023768085905,-27.867433268818782,-0.707840501437128
4.442573994268095,16.80176283252421,-0.7469203135883365
15.550552513839303,-30.029811148117304,1.8694034524613503
5.263003079233433,-35.673619732429316,3.7751206086319424
-0.6510976301134497,-25.698710512320464,-3.3309094988001147
-33.30244771872126,-19.925124764191594,12.556863582132966
2.081894863396334,-43.069275664555846,5.587100944843312
-21.66191150372757,10.925057547778277,-0.14886539504310356
10.365534491365176,-3.292761240259124,-2.653473763131366
36.96522284955464,24.657330545766616,-2.456309369520734
-27.26698747112734,45.5734875164325,9.551104037465533
35.38489493942855,-35.44061322138617,-0.30729832840119325
19.27338363240864,-26.029922808864253,0.5962688866692059
17.768597647901316,16.890481818256486,-2.2627745932522174
29.939854071424932,27.09303044463403,-2.2321065048347593
23.245611423862762,28.997682043710885,-2.0544532949318897
11.757285668653227,-6.483196758275236,-2.7564057340669628
-2.0603945196960525,11.114944665590045,-1.043382712965061
0.2895220235058433,-1.4615336310896356,-2.3851165698395738
18.72501299388446,20.12535261274789,-2.1973932554139126
-5.120892479440757,-24.095628275872865,-2.8849501015735357
6.770190007494905,-2.7136343123265267,-2.5593838415670422
31.102660504297532,-21.37482726223744,-3.4833279954781844
10.938047014532236,-37.82933085578061,4.12260536271829
-10.052271083150618,-5.8480487097774265,-1.9444991607204891
-27.43686716426182,7.979949093149055,0.5260390886321265
34.14184559257688,-15.670621273856815,-3.4673640275921067
-32.50112075876247,-25.323008085607352,14.457638021547861
-10.124145831907995,-40.2833741793602,-3.3202560540344694
8.026261697647879,-38.060836104099025,-0.7161048146775782
4.02922468754017,-11.288919049630834,-2.614490212429868
0.46366284512418704,-40.36886917143497,4.226522820746531
-24.044084840933788,35.10491807926716,1.3058168404644501
14.985493306605393,-17.838108397585273,-3.3098599111606557
-8.510639283802975,13.4631891435108,-0.09773175633649946
9.38999872670753,-29.72147902310311,-1.72303538276064
-12.88496717997269,9.571864276686888,-0.6898493781824755
4.726952778117905,-5.22364143311981,-2.5695718416381257
-21.023774450922843,41.8490115581286,21.799771391047315
-1.7354350254205964,-12.702868143240872,-2.4685469614010103
1.4927159160450858,-4.530478626087512,-2.4378431779359273
-33.14060565798037,-19.828293345684685,2.610590383270647
0.540548257718138,41.39186787698438,7.444711334349906
5.849962541345648,0.3547810605244067,-2.469824571942245
7.521936242192452,-31.7845924893307,-3.8252247728466235
-36.26623908622812,-32.81787270343869,7.562210238251661
-48.889069081063035,-13.488030126128377,11.715893688589967
8.955642132582456,-42.46799322716758,7.805587434794104
-18.322544039526324,-10.659395189789123,-1.6944644876860155
6.608271214786121,-25.15247331418539,-3.6947012741268077
-34.74248783641499,-29.92143926775971,9.413203773132206
-13.418106865392806,-6.740882085221046,-1.758596701619143
-11.284095583490314,-0.6843434244022654,-1.606084575949941
-17.6087245625936,39.809150612357826,28.70085214025443
-2.2795129189315735,-18.362883773008296,-2.6288514659760773
-18.944283101599964,44.28985235295248,0.8868268764167714
0.7466714817882615,-10.232091006495779,-2.5030223099780935
-3.6888985985493354,-6.499888156952141,-2.3173007826821737
-5.688324731383566,-45.82296728306481,3.691047757324019
9.319972757338865,-9.566618157434274,-2.7419675676782136
-19.39572403623478,41.092421930903306,8.172084177967939
28.376316314390717,-13.448325534679256,-3.28747513670629
-32.94402306454312,13.204656187648073,0.21777801312469483
-10.54638768128305,7.058878310408658,-1.3285987011790366
-0.4460651838850098,-7.168462827357019,-2.4217003279423985
-6.997360098168413,-14.764611623900505,-2.3212661860372537
-2.4750816458080016,5.243789771032492,-2.1149832990543485
-42.17920445828765,-16.232206405212704,10.440532533483525
-6.134869707830136,-49.42016273381594,4.596474043437228
-35.34517392954404,-18.85665389104896,-1.2294307340266042
-20.975394130192296,-15.530849664083451,-1.7642574653137113
14.446772287897046,13.399207395116285,-2.3076075598138384
10.747667635820399,2.266466055777077,-2.537444021105492
14.530692628676903,4.201433002664333,-2.529088585691972
-5.415669919070291,-9.019400694257364,-2.294722412036297
7.088341840725163,-35.782597342445534,-3.818898289160362
-14.35138868941838,-16.610808555990438,-2.02614242310096
13.53830888428224,-24.64335803019979,-0.17252757644697178
-6.790798934166745,-45.53302172326185,-0.8475273439002117
-10.357322069368012,41.48719334577447,2.890518005835284
-20.28881587499366,41.65256034630627,4.276344043921798
-45.2330389655223,-14.903519642743031,6.170883485950588
24.042249017197513,1.754447032165447,-2.8231613950245977
6.465703228774031,-40.38681705053322,6.3238307215151135
23.436198139721974,-25.268466099121923,-0.6344726154487383
-17.199283758910706,46.382347893358116,14.67526632048266
1.3578053739493863,12.156436954556709,-1.129011891328757
-17.988424523536423,-5.926880978146766,-1.5139735576565685
26.74549496406705,-29.55580099939663,5.663021396875894
22.251043367742035,-2.2092125139950145,-2.897294367499929
-32.25300421080048,-24.499600984865832,10.941562830379793
-17.798842421540993,44.609077777004664,26.05209458427852
9.512624139537742,-20.153759874171943,-3.445692918354663
-16.576691866030366,48.30840257954918,1.567402969483445
6.580086284719505,26.181772007315836,-0.8284861218652794
-5.271709885469099,-3.8040776312488367,-2.191945980014283
0.42801731489815226,-37.265386195877994,-0.2286754975425526
25.384090480485114,-4.425131188617394,-3.0176561136100983
-6.292225471139121,42.6498817022956,4.513375670248704
-15.144240697288776,11.541289680315314,-0.11683392145136866
-18.18558697542979,1.3558347286394632,-1.232718138552739
-2.542851558386751,-40.864738003137525,3.272906865649417
-23.095609815817394,39.69928128524544,1.4095153372075895
-7.766012521963555,3.7979271641686174,-1.7747995575814997
11.740179992136337,8.47174011187964,-2.4206975817181915
-11.533998480091352,-20.323057986069802,-2.156850436024501
-21.850603159906075,-9.665145994094212,-1.6150987501280363
43.26281021441312,-14.329860943485041,-3.6430541421924905
0.015645966061832092,19.888149060999712,-0.3661379318040696
-18.07077831943137,-24.95972013545501,0.567292453124689
13.020500143602797,-20.597448714581446,-3.461945859081909
-26.972991333609297,19.528381903177593,0.6130507208700018
11.384962149475204,-34.554014680617136,4.260742431488586
-35.54529102614171,25.734706597156737,1.3467449320319302
-20.180869497634276,41.43094844816348,16.80901525366443
-22.826557723902106,26.504453778879707,1.0734823323931828
12.196056578506505,-27.57239182683256,-2.4100333037201067
33.13467975070163,-25.900526363575295,-3.361849462878879
-19.357142225235112,41.010681231072,12.849974474143714
-33.01099693465823,-25.720274340537525,4.90097475530337
10.660594093321153,14.724625599599172,-1.6778813900624576
42.43920146303711,-20.11311793903696,-3.754148206892097
2.9338220257040084,-34.385143352900606,-0.211753836180869
43.059206780310106,-8.60022914563021,-3.5099903751739343
10.838412452105556,-31.585698539312883,0.6147697552930975
16.945635778808093,1.8657417484299368,-2.635843272910337
-17.2563555040011,46.5362567172818,10.82593253613123
-28.531658905181185,33.96290091359308,1.9063659739024372
20.16416374098592,11.730783101031763,-2.44224462651302
-17.876666791352694,44.80412829117039,21.029612622310506
-13.774480076980455,-20.043342208169374,0.7463684123032456
3.7744694376323666,38.01620831628339,7.843060956319635
-27.54596787734398,44.78312391582969,17.01189816172578
1.5548449598489495,-32.16591162636018,-3.771464312238467
35.008323001421864,-9.717764356773731,-3.353434204357361
20.941044842038984,6.899719326414864,-2.58217168519728
-11.60475296285665,-16.88615712360098,-2.145041611152112
-29.16906161432763,-31.350453565134348,2.8946440458381915
-31.45678714522162,-30.64577203795296,-1.887455245956027
9.562874642364525,-13.600954419463458,-2.990142975376214
1.8313648904771034,-37.88642774288444,3.97098677253985
-0.571115803014001,-15.1811874920325,-2.5401271584986196
17.360127459165962,25.937071915644367,-1.7253104796797267
3.7555460405353873,33.62341875176973,4.8066069023621045
4.466388847330205,35.97951939970856,3.3463857233101617
-24.99602272277561,44.20520367362001,15.065173959507721
-0.4234269544957898,36.86572583818296,3.402917014285118
35.49894759957917,17.2914127154678,-2.6691887019292517
-38.39611839646208,-20.48433307486523,14.081034982684624
3.091317092558146,-16.676329750986355,-2.8358254257537117
1.7375662636383225,34.810170577653125,-0.21386113870294832
-7.034002667478292,-35.217500629746986,-3.7597648348260457
8.160318339885144,43.638185561177906,-0.817298192879664
-43.75570126704876,-15.617221718990974,12.550611907070534
-38.500517581353684,-17.59790447516636,1.299129098202497
-14.062423827702776,-10.147476451911123,-1.8154794744210825
25.933062554353505,-18.77547592763202,-3.3518059610347732
12.06639136277947,-1.1980212503679488,-2.6448734598721475
29.334995088118113,-31.62843753422944,2.9160455697292993
4.268775001332109,-34.83586794103394,-3.674269961612813
-32.87943822381511,-13.588814984628737,-1.5290187583940469
29.39559473522879,-7.772523991588301,-3.183204420261468
2.3614050801043103,6.8465844400096,-2.2455684848282744
-23.99586021898875,43.678909949063446,11.512754950769603
17.61525719196726,-5.8346691949410125,-2.8690581665101997
22.85984896701912,-14.897571499808077,-3.195528610950618
-28.27267201066869,42.385189243698036,13.09492995710456
-41.23690050325579,-16.453357266860262,0.27242700046513857
24.776185383110903,-28.0642365443268,3.9192093031083193
-5.121642634720036,-37.48890054231889,-3.4923534032337034
11.600642685120201,25.27451492882332,-1.1951997197694066
-4.176046658478461,-11.642385448234302,-2.381484556794845
-20.08555128234474,41.23526193107387,27.875545523095177
9.47411301320741,-34.34011944318273,-3.7294024309641984
-16.00118811103659,-2.561700604043616,1.2953686269102156
30.15481614078779,19.584113866719463,-2.4305632926364824
5.299772593238855,8.826382205928589,-2.113608300368055
17.380750588392065,10.987092074751741,-2.408120793539657
-1.9037835239838479,39.384590856013,2.179703104356497
-1.7264324900452324,-34.587118043738485,-3.625456741670791
19.144700335051013,31.015223811895773,-1.5664623902955186
24.790530094318072,-9.936565001902647,-3.1278447957210966
-25.570534297915877,-19.923092855339405,-1.7919277472387574
-23.466548968670086,7.772781792905693,-0.4550976666445196
22.27761591153632,-5.309104982690313,-2.9674001425113135
-20.117262344432856,41.300364149725226,24.193862778532473
15.997789914401148,22.096467124489756,-1.8440500430125262
21.0855767344555,-10.634386499657733,-3.0599142579064837
-26.94600490958872,14.007452528140114,0.18634618358901872
6.141136006979079,-50.115502194491945,9.08038642757177
-2.317821390146932,-23.34494483628297,-3.039730589973805
-17.33031483488879,46.735707314369336,5.837577079274626
12.471076050836608,-33.631504433709374,8.751244423489268
14.839251750742847,-1.4733268963733204,-2.6818710624138538
-9.402481276985165,-11.438594701744822,-2.1036445979303284
14.811153814341749,10.687761683059637,-2.3665965127740765
-9.120932778988289,40.767354854849565,5.412910642417951
28.179478373387294,36.050155056197035,-1.966536516751695
-34.577638742510295,-29.779465492742816,12.327589631223594
10.40318251807723,30.162663811878126,-0.9791805053855709
-7.974921555072919,-8.785070820381687,-2.133837870497947
-22.08360117295771,42.64583988923051,6.822873925584564
-14.036267424357996,42.600878621690526,11.528200140698694
45.767812848459606,9.651507451018565,-3.1618480397375377
-3.3141877171043994,-44.45265172015634,4.114350365233618
29.939032756357502,7.085178003204747,-2.839688197742775
-37.34335481891804,-35.49786359623797,6.675959672812289
29.04986952589115,-2.165826267739567,-3.049691086397275
-25.09297602356508,44.376664567849524,5.9704347665237085
-18.40240286859064,7.115226447814321,-0.6055003427409286
-2.6276713696897622,17.810848257713292,-0.33144425020526547
-14.696641331419531,4.079558374988581,-1.0310255831732655
-3.6077811478277195,42.28411637348017,0.7812725545787151
-18.887055859348145,44.15606074435444,4.432764282724687
31.29649498541104,12.487175488730367,-2.693520055518787
15.706656108934695,-23.546751835541798,-2.6125009401681547
17.96501055387746,-24.262882267934256,-3.535646050208013
22.100653536425774,9.775750418935708,-2.5299734811108703
-2.1443499464300184,-0.7951577460427827,-2.3152711089608107
-8.833515653730474,-18.062798525218454,0.6170718852001209
9.66471098392853,11.757610421970144,-1.972088834037703
-2.549539195204045,-29.336260379893798,-3.4486254339624107
25.813696565439425,10.668599150305093,-2.5780623567139243
7.366404613892211,42.25625710620515,2.8995099870143966
-18.720394932445227,43.76642404995174,14.75947568137132
32.58535054066791,2.7802594321140957,-3.0185432844856406
9.523985242078506,-36.25029555537519,-1.6108343086262618
-19.349859839659153,16.307490126782593,0.4658642393911934
-16.669460759716195,-18.82189521064108,-2.009789357169935
-20.601609908559713,3.85249049670713,-0.9007617234399381
5.358922329018275,11.307465358444798,-1.6213467081250033
-33.781819497860496,-19.653044003114744,8.023626461298928
35.552262091182456,9.340591967359035,-2.93837462549012
-17.762346447708616,-13.492398961647293,-1.783044835849151
-17.657015776810955,39.91832559622441,22.307835632392788
-16.029528471923296,-4.42239476023651,-1.5347941328825139
34.267208606050865,-36.04871955633006,5.206981669673583
8.689163336389546,-17.838690165943024,-3.3176959627466434
0.979991727659827,38.68010348802991,6.958614499494876
20.66256239414307,23.915585845597207,-2.1364517288567586
19.986083570312964,3.9591366453332313,-2.639964563250912
-18.427405421213308,44.58687080936307,9.904601191570334
5.444746267615851,3.6318706640788063,-2.38720411590092
-24.091527983066296,43.85305097230813,2.150394891224664
-17.151555996956855,-22.50591567716762,-1.9127823878922163
-45.115617419868485,-14.864831233735918,0.8744934285889153
11.053335343782965,-38.228056546504156,6.653649893752819
19.050185640253993,-15.27133142153473,-3.1635896558815886
8.019731717645351,42.88638338224409,6.1985127891188325
6.223132665533055,-36.03306156177165,1.5715511605077332
-1.4836289554139352,-39.437272129195684,-0.7265478024140083
-4.862868759605552,5.646391445906134,-2.013046557653078
-32.32700345039279,-20.994845851041077,6.445038582535709
-16.14682570614517,6.243115213432508,-0.7440222876321789
-6.019105643144627,1.1255696710991687,-1.9813222355631344
-18.688041780085012,-8.266254749419481,-1.6334746493587593
0.13184275411911048,10.09570890501613,-1.4344264915364031
-36.091456813967326,-18.689497969811526,7.309479409176749
1.273171533626349,0.740685272309161,-2.357927421321272
-3.490694588998443,1.2039497953730043,-2.244100591524919
-12.028537998709746,-11.434093246599613,-1.943606782488174
-18.773740080863018,11.272631394357344,-0.1343665701417072
16.115997856695458,-3.6322884375039917,-2.7622273556995425
37.97808568387269,-22.803818479090026,-3.5410648342405677
5.6789597560584335,-46.34385556576835,7.806766855890671
-37.87055405329313,-36.89417997808753,14.282749618050916
5.708664087781149,38.27719366154944,5.983596751880407
9.01502662381692,19.641189817841504,-1.1946605578543859
-6.82074161545103,9.700911000936111,-1.094559078438896
25.22130054438841,5.968709987511891,-2.713366341676225
-17.69105692141725,39.99528455187347,17.801309902163144
-15.882206661764313,48.20341033601908,21.388139153992988
-11.40824113488375,1.7014261036821865,-1.4945411364264767
7.2893726892589426,-14.509908419937128,-2.9203045210049354
-25.41354906989166,2.208626409906599,0.15652532384765216
-6.600650738988212,14.922506083498515,-0.10012210902812965
-2.7695722615350102,-37.14781468787374,-3.4382453917677456
13.205131428247325,-16.116336678218627,-3.2214100018808822
-27.966191130558446,1.7402258321837816,3.630652369750685
2.475210820540765,15.306618808431805,-0.6663919622285943
19.74380511127642,-25.34042527608646,7.006930115031952
10.855970800915571,-15.849967597363408,-3.2121741787636044
3.0521127121373413,4.5600394983022685,-2.3124189524668863
-7.1177445476776375,-0.9610033824973176,-1.9402520268395518
-26.27845708872223,-0.947192233826935,2.752895890669307
-4.834858788393328,-43.28651010883297,-0.8018536038406187
1.0731989895213576,-45.16552229785637,5.853852336001829
-35.52365430182878,-31.361645740032674,5.549606831230123
18.34298742514742,6.801860191221984,-2.5348874926413187
-32.03656526020954,-23.11765706688963,-0.7273096355931061
-26.384258798963,6.287782337679475,3.853404398341726
13.53988218442627,-26.9519009231419,0.18507272753880602
7.044021374910438,-37.99947391478839,-3.08929748584267
1.7345549420933444,34.74984216380297,4.508222640236287
14.360888988254604,-31.41860780960615,4.476088175039737
-2.9774698710831347,-39.93631094081688,-3.20123354547218
-15.028353938047934,8.286927636123849,-0.7375745352575465
-26.265061774113796,-10.479653895702693,-1.5632247074525272
17.40518123065154,-28.29664186426459,6.396432446110292
-42.81587341323123,-15.876780492287587,4.780675435556302
19.372054790624063,-7.490139063851102,-2.950759343166605
25.552839310014075,22.00699423522644,-2.2796164968587225
-36.037341666331166,-18.66147513473742,4.24861095291834
18.019672240902224,-24.336706331263976,-0.9293237810549094
-50.77032647321142,-12.674866156101867,9.410974539849837
-6.716840840896421,41.955501606013144,2.348813496981831
-39.95201191407696,-17.08884053501059,6.718437022244824
20.926830931679127,-23.12573580693505,-1.7240934174430704
-33.76312680297086,-27.66425992231694,8.404292773645027
19.61063925883447,-1.9470578948611084,-2.7997953124315136
-18.606447027869756,40.70699678668721,3.0255294860896735
-17.160087867701037,46.276645964861515,17.31892244142587
-5.746966788463811,-16.662576752570626,-2.064221843994699
-17.6886881822791,45.96385585632097,8.234725662955316
3.9176760777907043,35.07496962507453,0.6497403169660265
10.559989599831516,-29.58655250130004,-3.679077725306418
-16.947699739867456,12.915689602571634,0.13074714406404941
9.501512278866828,9.031951962235814,-2.3576360138009633
-26.24268842880854,-31.138595759706604,-0.7496880261413352
-32.78908291361227,-24.906810007303974,0.7580462098931269
-17.799724925695,46.25238357621353,0.9123771757831625
15.024853029867888,-30.845742865274612,7.043896280480252
-47.841814593393295,-13.833076225378331,6.452899720078432
-33.48767763064134,-27.438567037200613,13.423475408366276
11.3098401740279,-11.897825158377648,-2.9522396283893095
-33.39862406552728,-29.485587469352048,0.8201929533371783
24.713456180398637,-27.993182540010455,1.1459765094742296
20.124931273982092,-24.56167663304774,2.1464721809372724
-24.995177122338962,3.414780453954373,2.016589561225564
-33.751376915650944,-26.969228151366043,-0.2650932953750625
-30.041376549410614,43.86110221005691,6.888422809153705
10.826567235875636,-37.44377707045433,1.675173901758492
8.647101034253382,-24.22709855112598,-3.6546274105072873
-0.028837779120466166,-36.65673614971197,-3.38340395730219
-37.111172994838434,-35.277156089891264,10.51186088342703
-19.62562883125801,-0.2254131732699362,-0.6023354576347152
14.700300069474949,-13.344655073025601,-3.069670420227782
-31.95439488483326,-23.66005139082232,8.672554751025887
42.091716128417595,-3.658083159650193,-3.3773518073117907
-47.04650918323849,-14.23099502763311,10.721028663946619
-39.18969256540376,-15.08172538691567,-1.288689028882889
11.826077563259789,22.083229116706097,-1.384776770459656
-3.0162108073245717,41.33296131975863,5.369847464182571
-27.82709610423776,44.0203662348849,11.359349271565138
-7.88275550835378,19.073081285125575,0.12663376336587576
14.042090582227482,20.97972576145616,-1.706533026153509
-32.24784265128786,31.515479227596714,1.937892642201241
6.48452661732781,40.1000901664133,2.245509578290088
-20.452000955201054,8.490352394881333,-0.4076733844058054
-13.663804862860061,-0.6604848751112984,-1.4321431606381387
-2.9264076058390027,13.080010587513893,-0.5760489569348405
-6.812163390297271,-45.676272650660465,1.41727420862462
-14.126684993849755,13.470925334474193,0.11977451219600921
17.585993749906667,-11.770607491369605,-3.0064463858625814
6.125576141399627,14.75560533513203,-1.0799810887231518
-9.50562927954093,-16.28033719198903,-2.2078519499329903
-8.224736712262589,-47.179948341254345,-0.8816749017942076
17.037657377239462,-28.476393536802124,2.2431756342843023
-3.3653129149593637,-2.6890722719579263,-2.268650840315632
0.4293809083354638,-37.38410764542419,2.0667115908492653
-37.3870897429513,-18.211120122988305,10.688486200280161
-27.605737729008233,44.88029533073257,14.23402014101771
30.285902966012003,-31.08739443479561,-2.3991958525645303
-0.9921422454930646,16.359370940607786,-0.502979184043918
-1.0158607883473258,-20.351619426285033,-2.894968092595524
27.35358137065481,15.027222882265209,-2.494785486347222
28.28852432031728,-26.975373140078922,-3.607854423943401
-34.222665934119725,-19.35135378267024,0.7237823962929764
-37.888903758206546,-17.883655593854613,3.349138172272851
15.619230280949614,17.20594280839141,-2.14485898316544
40.49135114288325,0.9621338339523547,-3.23765505976228
-15.266280184290776,50.46907749524964,2.9147494152978095
-30.10383605990292,43.952294535055316,2.9449224432412686
0.3929906321278593,-34.215783258889175,-3.5823096297119212
-27.839171456676166,42.86561559543053,17.93531697712903
-10.515004655394778,14.201178409302972,0.10842484014252342
-4.548926256735387,-19.087818434153753,-2.54251601098871
7.080745182304033,-38.197583103678,4.5496672777972815
16.56196722313204,-9.132591929610731,-2.9241960942154264
-13.123290440570143,-13.428252261005774,-1.965673559957415
13.792213062550768,-31.180923134613458,1.4653351389347935
9.262293598925465,-46.75690447287376,9.177577036692972
-50.871324001314015,-12.700080296717509,13.476136625111225
-4.243051014492119,43.43065936274923,5.110537176495985
4.534752598426215,-41.186978822015874,5.886821865982974
-35.574521360700444,-18.979010768928195,11.961443796366796
13.675712016420265,6.25092567096826,-2.5141552721732134
-32.08865183571961,-21.40445624530819,11.442839197611471
18.977937768665377,0.9173609388317383,-2.6993565787122433
11.844582099043809,-25.91345702504231,-3.6917905232175308
-32.15922388931887,-21.4515307201456,3.5680506268006296
7.958505623711704,22.187489183119258,-1.0130597026770074
3.676724636141662,0.13252547550701327,-2.4257836104188253
3.852766645345896,-28.53580880446232,-3.7309986773147243
-0.8959955000357371,37.70792288361309,5.8317699514147305
-7.713962903666603,11.564445602007407,-0.5974416205268733
2.414274395071897,-49.94538930827617,7.731208755439065
-27.834729841463574,45.25258147415285,3.5913275728903664
11.021667947296281,16.91239841628382,-1.6136633995221898
-2.568250320616737,3.134447170473639,-2.1980423209490985
-39.36406252223994,-17.41184938529344,11.627752344865241
-14.990676845907515,-14.604189016299006,-1.9316940106908433
35.28171614373471,-35.33727195678462,-2.7603925028900393
-27.043247648644194,-34.59656910744902,1.3476247612357748
-7.599313813673684,-40.6381531364843,-3.3047859312494743
-33.972016455196886,-27.835416393338893,4.597945104639933
-26.176204950687772,-15.22837180996121,-1.6740632090540395
9.555032653395612,-34.63342290129944,-0.22045006752597257
-16.71194085181846,-0.19194756261302473,-1.3359840525219955
-21.92581263087897,42.34113302330118,23.63521080081559
-4.715323557887115,17.947515485159176,-0.11386333107592496
-23.9141476089398,43.53017105395992,19.509418028034148
9.488583625811083,-31.368483779302775,-3.024858734123233
-42.756637170256624,-15.854814787703713,1.9598603898992193
-37.187019909806786,-18.113666809841142,-0.25380942737969286
-1.386483876248058,38.46595838205205,-0.23618040033337734
15.98188994615744,14.823010544292275,-2.2820224125042694
4.32017108428108,-35.255292051636644,1.9634731454344332
-33.26854031411622,-19.904837688812282,10.473027599557325
6.953208552905471,5.417541066139033,-2.381193743700151
9.844379913475615,4.210777641667934,-2.4734717390916745
-10.399041821961228,-3.711610992301261,-1.8461763775897062
4.066414146552652,-9.193198101140217,-2.5836460148628686
38.37356675757562,5.181013059052395,-3.095285110138142
-3.356635289739768,7.111478454553362,-1.9185902829423602
-19.218282176209406,40.71648774217465,29.686200121235444
-26.665677356115285,-33.264035062508164,2.881883996443171
6.492567252290387,16.79199377621611,-0.9952223760872566
-5.812866358715615,-52.04261580542541,5.482257071432448
-28.11187936381418,43.28552005758037,5.403412098491116
7.02937356320324,-47.64640941221494,8.661670291551994
9.999392397817536,-7.620447046316137,-2.7422503907655114
1.248864831804877,2.8114218320868902,-2.3109486782012203
0.463464507661064,35.48926741112808,1.9619967203860496
14.444341013713897,-9.413255675042759,-2.8827192727713795
12.456739873020286,-43.08174333268131,9.206935297183852
-20.158556859883685,41.385141019276645,19.399532504828617
-17.77004158318627,40.17385014220069,7.344951437361451
-8.596444730933634,7.998296595607513,-1.3751332088543493
-9.207550574403284,-1.0137661243095917,-1.783547462315612
-3.0853849408632685,-41.38375792383928,1.273561152918084
-9.03691008811799,-14.246032891694314,-2.1859549168062915
-21.14356174613702,39.63178577308525,0.8269544780290293
18.823277760157463,-26.77171378014629,5.885708416457214
-7.955526287768015,42.91665194645969,5.655544175517685
6.177921416732468,-6.827071857453832,-2.6089484122910322
13.495181458118111,-11.659552506842862,-2.98195174600773
14.712815761315046,-28.412050206970562,0.9819175102206896
7.899955439268553,1.4644269839059854,-2.491188117933495
21.477732902894434,-25.566200579285564,1.0247283768834974
-3.695436773120318,-42.52152530058117,3.4118388018543055
-8.045530133156266,-49.75328236205321,4.028773278827322
-32.682938075800436,-24.82618166781669,2.7744063345654317
-8.870284184361973,5.475341194578741,-1.6116942591782781
-6.76952974889766,-45.39040959701838,-3.1022294305844444
-22.943878163586533,43.00632386826513,17.104193059393356
-12.699260099390496,4.206352532521969,-1.2347627024320607
0.9181987212219545,8.220636830905159,-1.9108735449837635
-18.417760875769456,40.294191129823524,26.925612227569424
10.334296509162431,-43.668464160219955,8.640222594658844
-3.632510926184837,-41.79746934811841,-2.836068433590445
4.75834664239456,-48.705078362216284,8.182379917905664
-10.226620591516996,11.583796895750371,-0.47421400242994577
13.25555427467245,18.308836458936195,-1.806856060094749
-8.147048983320614,-17.190485044653943,-1.051600571538274
-22.912183097769905,0.01802496743415895,-0.9847176870232669
-30.863500115956153,9.3888612355374,1.7833160390182214
-1.9385919204102409,-51.53092815672924,6.681703898834237
-22.73428024763849,5.713651681355085,-0.7193949924589315
-22.98221452479617,43.07818207612159,13.18979676209448
-28.559563107079043,-31.46084670077427,0.2607210597846971
-7.535824572101773,-46.60128065664112,3.1910675010867147
20.34808436706065,-24.834026090406926,-0.5910603442164272
19.717186403457376,15.755129041010235,-2.3295216662922975
-10.982138287570283,9.027275843106013,-0.9609813226161099
-30.0098388769936,43.815056481390826,8.879613930189008
-46.988694808930774,-14.2135068847808,8.208194480613791
21.518292155629904,-25.614480627997843,3.0877479788767808
39.09060351688166,-29.790597494099035,-3.3223184078231127
-33.46365366182266,-18.383910143869446,-1.6409364520962424
23.722056015640618,17.564565576937905,-2.3594844089135933
-22.230621725104974,14.87933672310746,0.16414175500200584
-18.647112617154995,43.5950972751733,19.300223982067177
-21.143631146293966,42.08759308598955,8.470666031106758
-26.15423002823947,44.95677503085424,8.041578617623633
16.37045486398878,6.531745577652029,-2.5040555885166356
1.8245575371446976,24.472488484431,-0.4517852317368345
-8.537308013938564,40.48423703701941,2.28716879625102
-4.672487621189056,-13.547265275620278,-2.396078855167751
8.452337004062622,-3.754622060077451,-2.6206713266105353
