6.472215342993819,-27.457343379930258,-2.254999337234233
-29.01906993108679,-23.734250989149402,-1.6111959669097946
2.305821603644471,36.53378782613458,-2.4745188884778977
42.59468308328451,-8.54666710372259,-3.47273988915251
-12.67190139238249,-18.896371069176958,-1.8187115188973155
43.56272958869392,4.757299652187907,-3.5029600005104222
-1.8012501568339763,24.98834646962622,-2.3123993030813526
-25.810372308193642,10.74159846400286,-1.201504862576835
19.05073676488294,-3.338436490118715,-2.506062649272343
17.37792162326113,-26.102266158211457,-2.506647571069145
13.475177338118606,-41.020076891940974,-2.3867867724511997
42.08907764641969,13.82634622498174,1.9040023557248698
16.56866342884353,26.068249779646703,-2.8509592730375863
-36.31073172145726,-29.697989023194722,-1.439597053451122
6.59620257425796,26.147957694124244,-2.489055029412853
8.973617154679662,44.72250693464144,-2.521514539685581
-43.28839555023664,1.6668840124642659,5.613133660703351
26.895877081649953,-31.285402734672395,-2.7889040281612836
-13.328348754005331,-33.167569981780076,-1.9759875165270875
-23.79327971790389,20.59370568765228,-1.3524187133488699
-39.848061437964006,-6.3432775979838025,4.224246159530826
25.63877068797268,26.188152177334835,-2.9296150967203247
41.44975586967573,17.08791575123952,-3.030674994342556
-18.818098423871273,37.54129908274403,-1.8048003503983483
-3.620137443935308,-15.131103732939694,-2.01590383371135
23.952146080563857,8.195319389452756,-2.650284360791604
-15.32484394123848,27.953941729717883,-1.7622582635720576
29.951860686377273,15.476577851792698,-3.111795804856974
-7.0497239582533915,19.063166147724676,-2.1278309324597915
1.1609047637836125,3.3562492640321753,-2.279517912916726
37.111357140808515,-18.758121586773616,-3.323979228802705
-28.200405921919714,-11.222920438846273,-1.3044458833013794
32.890867335218836,35.28790209011918,0.2959973142502668
-5.047550376090787,-31.039491781073828,-2.125764180880734
38.68016752672034,12.182696640711734,-3.2416966952757957
-4.182823045758983,-8.533898485193312,-2.0729919854947503
5.48595944948268,-13.784850760512585,-2.2938913715130513
-37.64936365607404,36.85954605692276,11.492513349227266
-38.49738930313486,1.9557812000894268,-0.7096451259559841
30.99457360772872,-13.800998620952818,-3.131571480544481
2.069462148716179,15.048506207736978,-2.348588065068122
9.538585256571963,-2.7834359051768933,-2.424243819070917
-3.3602326713085646,-0.07686783955286484,-2.275777421171519
7.210160431140734,38.3690955446411,-2.6390647751619056
-2.512400321313313,42.04271458338939,-2.3282468533323297
-13.284108282854008,-24.04039407562853,-1.8566752770413044
14.668813240694316,-18.861280511293863,-2.5014761896452566
37.52301080052711,25.65151698434986,1.95347491500529
-17.097756261073684,18.01856348992813,-1.6790979807092001
-8.128792810521844,1.7350835800039304,-2.027905436054401
37.20663336192177,-2.3482880946559486,-3.440991357535137
-38.6833232995458,35.17850437036026,2.247183637150611
-1.0492318403762058,-20.65296804487152,-2.1649615381232143
30.848492800643946,39.392719407203586,-2.765863296601238
24.4014308702115,-12.712146959163784,-2.880474981499186
-21.73696480413869,26.57705532941612,-1.4756105023621633
-2.1923370726800933,20.075293558712215,-2.3650678506835265
-12.003672102773777,-2.6744412549152354,-1.7471850361961379
-26.60979543666761,2.9960160693659557,-1.1508588756687095
16.12158582779894,-32.161872130596414,-2.4319175481831894
-22.883436476659906,-14.437231454548256,-1.4957019528139683
-5.2587430617968405,-26.208402809569332,-2.136768236772849
-15.842747380986662,-11.410848243731706,-1.5607101117381832
-32.85507715271846,9.58737579571622,-1.050349831515379
-2.662073488449448,9.68244574941568,-2.319758864868397
-18.21821352988022,2.9625920167455724,-1.4754320806655774
-36.06230233215226,-14.866905030395467,7.015099856356956
-13.635666076326206,23.48629512491919,-1.8357977235458267
12.650250288759603,-46.01126252483274,-2.0508450913499043
-11.551621059474288,6.569448229816326,-1.8879776327183475
-37.49068281635482,-11.808056810748802,3.627952290613218
-43.70090285720198,2.220135073629269,-0.26849456179949144
-8.473679251953234,29.403817202124692,-2.068524363375747
23.54113625881325,-2.0668982627974497,-2.4740183906663997
-10.223490361673605,-7.951022768238384,-1.6781414288980083
-24.411111221270037,-33.65435574965284,-1.7868252777863074
-31.405251016259864,18.895025624473938,-1.1247982103019851
29.585278879764342,-9.42703058492363,-3.2507383272658084
28.222040126524607,11.231530207007442,-3.179962283206786
-39.02246990283983,-5.233455259149839,-0.7248297237702362
-27.313969611542266,-6.438419433072633,-1.2060688991984214
1.1284429147175132,-15.654639871742894,-2.229835957796758
2.988678360419523,-24.569618831745633,-2.284482537629643
9.935946355854261,-10.999530477991287,-2.4783931050340122
-0.011148758161310175,-6.668180418364022,-2.33986326555547
32.648862470013476,30.98039935456769,-3.042453360751827
-34.53584167619324,-18.9331575913077,-1.2087000408203332
17.065470603827258,41.005642817072484,-3.002358468583653
23.792343813575364,18.039633687449424,-3.125860841607721
-0.8508233145342711,-32.44738163270349,-2.1941266839646523
-19.15728596571172,-6.818477802411133,-1.3745704344925567
7.922576277554564,19.71531567575579,-2.488384063232297
25.788778926718923,36.48751542335293,-3.0203450373297738
6.548489192963151,30.679393479948843,-2.507651023554137
-39.72356986379631,-6.323460206997667,8.773637923546515
19.08645004403621,16.820209497617274,-2.979412490434542
21.28099346261167,25.84273683217292,-3.089939554479298
19.134876496098713,-8.52021413415768,-2.7140294730629164
8.00925860586448,-20.867057761584803,-2.3399766387560192
-48.74193086240685,18.895517193754223,2.246727288094982
13.043962412965051,5.191107985230116,-2.347349318403709
-41.49312645969271,-2.479557880185328,5.385950782615
5.499521209938748,6.3539631209294605,-2.3811481343161183
13.853303817408902,-3.494697343911637,-2.5694842861508143
6.200884915994902,10.903544754014426,-2.415133942073373
11.697483618987674,12.245190218814884,-2.405889640937898
-42.740107441213084,9.122837837970671,-0.8045636758683306
4.863235338789957,-50.23820322607193,-2.1692251267309786
21.52533827206113,-25.038368326755364,-2.6394339253301258
-16.802587073078232,-19.901544860607526,-1.7606588043709699
-7.618030914090702,14.309830945750504,-2.1005330174394308
35.86695478125566,7.530459976514542,-3.382685179240727
-42.0758404998342,33.790771781124874,4.98092466068619
-34.88897542804849,-7.773330896379228,-1.0969700004328096
-49.506748111141896,18.496441364389113,10.849881863529998
2.27388338253987,25.898613157946222,-2.399628140067209
-19.676738947585456,8.761490011682577,-1.456004277348944
25.04133141240996,22.068034625831793,-3.080742991569859
-10.61274762079538,36.82642235746892,-2.118594690467544
5.491439033904447,-1.7497879245366452,-2.3459828234383484
-16.166008106279754,13.992102687483362,-1.7090716114218834
10.70325345493209,25.71823528002281,-2.571148855781331
-36.34856405486173,-13.951418201523582,-1.194856571352245
15.126911559272123,29.92731520140068,-2.6805210525135776
13.159721263073289,-27.0775215013836,-2.406570590945453
-39.30926278182787,34.87607459883746,8.12498085626293
14.312277931707237,-13.340074270053439,-2.5351139662654902
17.520347605941392,0.4007910762201682,-2.270745591871096
35.94037475656524,28.66626640876601,-3.1076375228620625
-2.090087220987514,28.99531940725773,-2.3238014751358724
39.58613298629611,21.074210170768243,-1.9273964893852054
-45.00155722034265,5.62681265277144,5.876358914546433
3.4147300925408106,-40.44414684798611,-2.2436873813650293
-3.022987324418972,-4.061815601731713,-2.207325409510562
-22.48840376427943,-18.392919571655995,-1.6059890749355066
-4.285990397166528,-38.066994659430755,-2.117620858507428
-34.387220689714624,-18.851680944965683,5.081261217061785
-22.274329454027328,1.4058391729381425,-1.2337641125356735
-33.7934300707189,0.4712386562079954,-1.0371956835807075
-7.398554303453139,-16.081788418518666,-1.8532393743001154
-1.2287849014382484,34.95028275965822,-2.364023179148071
-11.326499710176835,-15.218771466284108,-1.7510204198387864
-44.06476864192249,0.0736733888708306,9.046462950664353
18.070778887878035,-16.84326797119787,-2.5861959700457198
-16.136352508856067,-2.976447783340781,-1.5145046606959944
18.57434049995117,13.0351224682113,-2.9402365174452307
44.434768634223154,11.051409812641575,0.8429584784399416
-26.383772470839794,7.001159074106334,-1.1731624381964676
-22.241156524532407,-4.669650380436423,-1.2562866051991295
24.149357544468874,-39.33904558607555,-2.5517061624927244
-9.827456572226541,-21.361345852792386,-1.8795917761859815
-12.646517884747364,12.688876995136653,-1.8755181740324787
16.409761798734767,21.493056182581057,-2.8309715770349153
27.693872352398902,18.437554052493148,-3.070809919766376
13.571714027619297,9.035544317713839,-2.31637287692253
-15.080525435467782,5.4243569257476345,-1.677815897245809
4.370724680282114,-10.24338895250492,-2.2863910938898515
35.97797986416283,-5.850632706076415,-3.3643749728120986
-24.44383042130791,16.830525854570606,-1.275486188320355
-7.847674829269093,6.462408289917,-2.0870807917441065
7.235051446074213,-32.47302031621057,-2.248929305720088
-19.771994818136445,-25.89681682647422,-1.8011087761659172
-0.5613976401920928,6.649207399917063,-2.341503786706384
-5.341797216194023,27.09167506814105,-2.207312674980735
10.317829400353768,2.701025791239616,-2.463859282608114
23.12129186122955,-19.039936216561703,-2.7645444341533505
9.967338103747263,-6.508208518189736,-2.443873333735494
21.324847491474802,-15.072053309819628,-2.733841942587115
-13.421388233327558,-43.97954896370498,-1.9762048906976095
-11.276276538876822,26.427490856336835,-1.942266718971092
13.835474573567678,18.12132534094977,-2.67009460067621
-12.374274723354524,20.157561398487772,-1.8907162731367095
-51.37786879231359,17.771270231099994,4.34571734121863
3.345333926876832,-5.302452665520181,-2.286771596159895
32.88732205864677,19.637237973689146,-3.061892683962623
-40.04404805407171,34.659170570218784,-0.9749894701711854
0.8659686498428796,22.488903347920633,-2.356123248085382
25.969567957848177,14.23697523674516,-3.1005233220209956
42.905534682984566,14.094553995182872,-1.9409367864108296
-36.75061024063105,-13.080309006156059,10.026014120526359
-14.78083719795522,-14.731494524466136,-1.6681491283781542
41.54452485109021,17.12698484432014,0.8272725601084008
3.089545065495617,-28.291052925028737,-2.2749361140680144
7.564550503899198,-16.588470582212015,-2.3623406449278352
6.033692872406391,22.737889286541908,-2.4628290128513974
-0.6314100158900451,-24.07973712322434,-2.223314600167721
16.3345291783163,-5.875413085331839,-2.6839329850047817
16.426537753169676,3.659864237073584,-2.180612638304016
-0.2781819406407711,12.16056091788955,-2.3420235533257716
15.21219517937033,-22.252382358653133,-2.4879489572383657
-38.65368821669325,-1.8341568631383462,-0.7124092364685688
-21.853613594835394,11.38483841722019,-1.3621605426715588
-4.930095350680642,-11.846244015021858,-1.9838645184995924
-4.949624408337196,23.574649542218005,-2.2233729654107877
-37.355855441574555,35.68499135519193,5.408444720802935
36.21924934363291,-28.363344024872468,-3.109730622021455
-38.7657107814954,38.89555529974758,2.3601261048150026
43.08026700060243,-24.499901990379307,-3.350122123247517
-19.87173815112525,19.938297907545298,-1.556117520505394
-19.07285458222222,-10.456075311760356,-1.4703163080354664
17.07194380278436,-40.01042695188449,-2.4046814134468217
-29.02738346105248,-20.370871221379023,-1.5240868979936932
3.0914909127046286,0.609564285332611,-2.307116947661955
42.36975356683527,8.354250192536274,-3.4521045246798385
6.216823868578359,-23.748062049640907,-2.2657994204923955
0.4710603222796901,17.964568892191313,-2.3285105560418646
-42.717128693869654,5.341176951896189,-0.7925394512363786
5.164751398292172,16.20877423560041,-2.4168682404805515
42.648829365110245,-4.801862472848776,-3.430743565960414
-18.672454114168115,-39.30940903055582,-1.870348471958553
-7.5569527195242925,-23.716328452978193,-1.9897180996521344
9.741076579673772,-27.368658380719214,-2.322199226928483
30.140513527410327,-30.993000983315728,-2.922398092996975
5.97706895733558,43.463447429727445,-2.425250683158041
44.093579942259844,1.550245692030539,-3.52686915887488
29.23384515592087,-22.893064388508577,-2.968125215399722
-3.668935942352961,-22.56181683047412,-2.109801944750857
-7.829250653157308,-48.14532658292229,-2.096365308559631
32.28143495867251,36.384811776014516,-2.688850072420849
11.689464397793081,15.70646640933873,-2.536894097975739
11.634573707457488,-20.039580774157024,-2.4259069921232475
-38.8976140613127,-8.666463301618077,2.202964537159342
42.10848578129708,-11.728816782633254,-3.4941441940669233
-7.1235853562410485,-7.099804785384531,-1.8087749692811188
31.123217981207926,-6.2449057963848045,-3.3232545560628903
-44.08623346100057,3.326115433230963,2.9886034491807885
-5.450057761553763,11.951552547939183,-2.1962964192751793
-0.20556717494358095,0.4658529253014239,-2.334449217839694
-23.002052962063022,23.652637816644194,-1.4179720536075935
-16.630175914040645,0.23190252465746133,-1.535108192041814
-15.42857622133219,20.875883789182115,-1.754738103660449
38.68716735023815,23.10036403784418,0.27648272936724905
8.447867782626671,5.329786135906656,-2.4369901214492313
-29.299406892739498,26.64479743490141,-1.2153872799783891
-11.459284446271148,-10.87367772121096,-1.6538212807095956
-9.33054792913142,-1.134979214680435,-1.929671374856396
-1.915701005985641,3.1206564839245807,-2.3503781849927257
-5.470947511897726,8.440288422694248,-2.1939297359507117
-28.84054371229664,-27.366698078086117,-1.7087229900349745
-1.7601726523430685,-17.57012942623859,-2.0680009459492283
-42.67485151741086,0.07134953904775558,2.884731617522053
-10.299369427488749,22.585715658209324,-1.9842830085134153
18.17260841690687,30.20452791627513,-2.817759584074002
26.677019830981493,-10.34173406706814,-2.9953515416144634
-18.925680092478576,12.691556015581067,-1.5403661010565914
36.496354093555475,27.67196304550411,-0.2810342599612384
-25.06309347585213,13.849225873299535,-1.230669365556176
2.4632544208846117,6.129803841084781,-2.3181174566157834
-35.41698752952812,-16.150590226827173,10.004587003025255
33.99962495798179,33.06443788791483,2.0382723651072876
-18.001832629091567,6.226716674446422,-1.5226570908613153
27.581021014397407,23.71124186192787,-2.9074691134267416
1.8268450046314957,-21.637196977067678,-2.2732722122942772
-19.54208164655552,34.63148207378143,-1.7090036874964925
9.569333022293453,22.22089597242497,-2.5328660473503612
-36.96053046705996,-26.62107739429077,-1.3978816595765782
-1.9006498822936044,-12.667187741145346,-2.141693667266994
21.519563555761543,6.4886180762368895,-2.353081598340822
-12.627889933166243,9.641284332185377,-1.860661960098855
-38.62157340985204,-9.103835594543305,5.141434225163507
20.683836014130794,-11.100242619129506,-2.7491441539100046
21.843181092621112,10.286400755833466,-2.8275953776175786
-40.92528902006096,-3.961712382843832,2.7793928690822542
-10.751547966451016,3.718890425112759,-1.90218721145643
-6.186896889406078,-0.9071703905566867,-2.1083716609728054
4.170113212024206,3.674972438206004,-2.3424039286195337
14.753327154845888,-10.427410252942838,-2.5666928362641044
-9.30467650082257,16.972595983045892,-2.0263690857733483
-5.121886392715376,2.280629762395428,-2.2023551143156013
34.20372409285365,32.45580248877862,-0.8680539225696892
20.702814863029783,-6.041247908151168,-2.7943887931020264
10.730652294141326,18.868621029739767,-2.542125409272398
-10.108131404480684,-4.912568964876871,-1.7376409396984183
8.976965992703878,0.09515862942205185,-2.4251967442078155
19.329268487695423,8.814388701716089,-2.4879794093436134
23.82153300827744,-31.418049463703067,-2.6652406646431297
-3.4177114308305234,17.333403686690765,-2.2891711751384825
-37.392268745759466,35.719775954010316,-0.3173020642822611
-14.848485758074967,-30.294245951123564,-1.8649925550672917
3.8539641100031816,12.62876837578997,-2.374613164352965
31.366448266718844,12.931010428204425,-3.13148163910608
-43.93693410164851,3.3148514429934743,7.924248104340404
-34.46736610734567,-18.8956180766116,1.6893339809402632
-48.778194235754604,18.909575216948465,-0.9631156499156435
-42.4838950768719,32.43608505796915,11.658725582739457
13.737980318338371,25.598911827402105,-2.6815167286073103
-35.627197786041336,-10.742377695586763,-1.1419929096897552
18.965880883083447,4.964933168698286,-2.052458431361721
7.3115291780459595,-9.892982427702071,-2.368568407817363
41.39759695451468,11.38177772333811,-3.431977612998339
2.3624481970468674,-8.197737118671707,-2.304682598688156
7.164242223135007,-4.310379188371648,-2.3691164080938014
-16.935837939706108,25.438240492627227,-1.6893537685510396
9.892746569589175,39.21576329232281,-2.733948069738075
31.79743013317461,37.661937384709894,1.5126710151707248
8.830660377266238,11.865254546136118,-2.473041252281724
-35.57020456386774,-32.93240958697747,-1.4876476754749546
-10.650479871252097,-34.89976542229528,-2.017078433393776
34.67524064372567,-20.287075491290246,-3.211361003383218
-7.179184293066964,21.854309174096375,-2.123195316839257
8.415412218797554,-13.338675877021675,-2.438470627935764
39.48290297243262,-17.003141893961875,-3.4363507226707632
-0.7198079924871004,15.169495192397319,-2.3480357927116637
1.1227442990444918,-18.788095875652736,-2.2042668863463186
-1.540279190323426,-9.471818943118778,-2.2168447433794043
-13.872027030690846,-9.483208553726392,-1.550975290174667
14.178769195161765,-16.08912005333289,-2.5115265089318752
-13.479107729039985,30.546130566563914,-1.8456673422391692
-37.371954857690824,-12.276761950158248,0.7241840889502186
37.25390957021075,0.39490301937153116,-3.438714973679819
-7.547755386961729,-29.92000114036458,-2.0858890021981162
23.480110047242146,28.51325084082193,-2.9525960097676194
-40.78183290119025,-3.9478253243493584,7.888895134316439
11.997073194864791,-1.5000654959241035,-2.4821648975451964
-36.32606020374113,-14.456688483566829,4.093095354819089
-7.415478416937527,-9.963755284356298,-1.7645712133721274
-5.2024081364826715,-17.828186184215337,-1.9442872375281752
-38.426921823787616,38.55563157917551,9.10165840746957
-4.377103644786222,40.0812638261739,-2.2288455437334
-14.145664102383833,-1.019670497762261,-1.660948141946931
-15.35043008977295,-22.294211912972038,-1.8297269246658117
-8.301270760513605,-18.643168852563875,-1.8836334587002082
-28.579556427095497,-13.889712778314422,-1.365666237746173
9.860868263036368,-17.987141525636027,-2.4023251366702474
-1.2840585610345456,-2.02026913302316,-2.3646056023575057
2.8229991137454316,-13.445710072958514,-2.2971719453267343
28.948032789209876,-15.535328509045387,-3.032341167777557
-14.898059731563546,16.492808657699225,-1.7766169215952177
-42.326198681772574,-0.44867086034150583,7.077441297647486
-51.40975478013134,17.782299386637476,1.6694421962998283
15.901886643505325,-1.7904048917087085,-2.474168430176797
9.918959928540248,-39.88148996272401,-2.271792304634192
32.896104800547604,-11.832493149429565,-3.226742007561823
16.44070274082885,17.638875335765377,-2.8239357106189393
0.0717361157398691,42.9060667874227,-2.3718298138638843
9.023224098137895,-23.508809955730545,-2.324196717686581
-22.21812654300081,7.991700893074713,-1.3052433516955995
-11.701271355252752,0.019563754477959192,-1.8091678569957033
-11.139610746939395,-25.867229304736068,-1.9038177339243758
-36.68956506546469,35.91988235691684,9.234180088421727
11.704199716538298,-12.957064872507686,-2.4806444092070667
-18.951685761346365,-4.222472074909658,-1.3125049991180986
4.414611494646757,-16.863670246444226,-2.2586951575692202
17.347586075606767,-10.437206289217354,-2.6232359318393375
-37.043203844506934,-12.674475418329271,6.0533223133077545
7.170796695665654,8.493330908175547,-2.4245496193660934
-4.877065238898522,20.690172970792304,-2.2254317259598855
-9.549864490439083,19.64985852707748,-2.0165235988726873
21.685670929754735,-0.30239979802348976,-2.2705081985123274
-40.6487735355194,34.31917278423544,10.242998706048377
-10.097508675635057,13.662596901285196,-1.9896434131714835
3.414974400855272,22.759647776179317,-2.4093953124045444
4.68551139773491,37.47331256317558,-2.5528393631887107
-18.730063688085725,-13.144406069881006,-1.546780717720566
-16.34789537109439,-8.7030219147558,-1.480438738700277
-18.103463897702,15.669021331085222,-1.61847575249823
33.37458440794682,34.08972707652578,-2.6372281679526415
-39.362617757033526,-7.761318612738661,-0.2461793349104383
-5.663279844981094,15.911626412538777,-2.188401274270927
-4.602842898528718,-6.0286774562016925,-2.049011481543287
-38.69835368498077,-8.622067706139516,9.672970803499235
37.388316601728114,14.350499237724575,-3.2012822373364256
-7.131993590668733,4.0559902742699885,-2.108744376418873
-20.65603586856846,17.43959294101019,-1.4943998506944476
-36.43850663248458,-20.561761410426854,-1.284025247158736
-33.01168628937333,7.0463150143022855,-1.035925448508736
22.51044181741459,20.333826320308017,-3.1757436836868025
-12.581727589471502,-5.1868942661547415,-1.5937941327881902
-39.91612051672167,-6.35411169163965,1.7371106691439233
30.59644245476816,40.074381623147254,-0.30937237886132724
-2.735546458425504,22.48864738011211,-2.3717058434202385
23.16729002028274,24.252042780579234,-3.0956650901137537
40.57097733344181,19.105703063030365,-0.27516605822719076
-35.487038361597634,-16.71157221455907,-0.7221277093979916
-22.14628490283712,-1.0508637680275363,-1.2256133248225474
-2.9618631329087948,7.184521832017876,-2.305362735427541
-43.50646470460398,34.06997240652596,-1.0173129053431742
16.43037699869463,-14.577405256208458,-2.572391800468874
6.415318247655185,-18.749804921441164,-2.320834391989492
-35.358334535045884,-16.65096295013431,4.577129259131851
-35.0960860372018,-17.056757194369293,7.513230091665042
-0.21934132063182482,9.588377610745304,-2.3399457528908214
-22.945277541992215,-11.856170737704664,-1.427726059473828
22.983568064300034,-5.20151269448227,-2.7597594910911742
-12.513553627228047,-13.099470746855333,-1.6720890135687716
-30.883804628832035,21.2646980172125,-1.1507430636489815
11.975058005640749,-5.157007087358772,-2.51040816729896
17.45005318938377,-21.33559276993474,-2.5440426186570786
-50.42158317897961,18.136282127199944,8.284790383176182
-20.05043002927265,4.537701284470535,-1.3896419589679423
-0.4288797319250527,-4.28109844121415,-2.3338034115248325
-2.7160096553603923,-27.111341097177046,-2.1780365701067987
-41.39472244130176,34.08775252330336,2.304632392251334
-20.704690283915404,28.746257137354423,-1.522553093390526
-42.68119047970332,32.586718385167764,6.957897513121687
-16.765467559943406,-5.280447794890977,-1.405075630716387
4.597917190727474,8.56761139758025,-2.372279728686608
-41.01042235211586,-3.9699535897814133,-0.25281625804042634
18.478798759114913,-31.828186373972382,-2.4878386215940838
25.875519912817968,9.568991386219865,-2.888225976593348
-19.991926691202035,0.7698188522891589,-1.3524124992410134
12.278663354614647,-10.627504167591576,-2.510776331023993
21.469942185643973,-3.2214603526753263,-2.5425690445351044
-27.389726529279685,-8.997579970337087,-1.2390412608351524
16.37529206663327,-8.276973500035798,-2.606749067247037
-1.1308951585088967,-14.989530273009139,-2.135624916745692
-40.00860497683565,34.62849366018713,4.229712773182423
4.278674301021319,-21.69989784229669,-2.3155168113054856
34.94369586283861,30.79463617791095,-2.5747269410347657
14.932208159124638,-45.45545572309927,-2.056288700465041
-14.86629654921209,11.93900414008199,-1.7598674730059471
37.46117580084031,25.60924528197701,-0.8354042016674713
-2.3485725462928655,-6.7898721117581955,-2.2276487804008673
-42.766996058608896,0.07150359864741385,-0.2624186613337219
10.365469480399183,-46.52324914796614,-2.048497798466625
36.2975524169841,28.229367416503532,1.9762399905334045
10.81085504103938,-8.682111423348145,-2.493636230724043
18.89563492910526,26.050449496358038,-2.9703718461777573
4.190125196061394,30.46932994799744,-2.458537835416371
10.754035350514888,5.556772150682206,-2.485109481472382
-3.372411863859751,-19.244616715436102,-2.045432939808735
19.437357223539003,2.6068196000607706,-2.0531289335283636
-6.550668543530633,31.200289646390825,-2.1550560250252677
-26.540183902187156,0.37009444058821717,-1.1407521130629001
-39.37603138663514,-7.263147063326999,6.694834876362029
-22.635033788948093,-7.129125020270963,-1.3118484046285475
13.841516915708324,-32.43948128325599,-2.384113013969543
8.722580010959625,29.891499544524688,-2.489079207364126
-9.991540966546127,-17.077823147322206,-1.8262336569678812
-9.871755270258502,8.334580488822107,-1.997538734892128
21.37969299492428,15.800922552165373,-3.113461199969838
-13.84495445485419,-16.81272610974748,-1.740986613630385
-13.011236404191884,4.50050194013132,-1.7838994661900494
7.771474854625768,17.453342039800976,-2.4755260222936704
-31.847441337932803,16.59121371670774,-1.1020506991633112
-4.873943866027277,-2.7503012654125607,-2.1194067041419857
0.47074841344173707,-13.38947942735288,-2.240136855087976
6.053846597343139,13.158878897624923,-2.421869208921879
-15.340481504851057,3.0780834400485797,-1.6380158723939309
3.5846618761399283,-2.9518996554898864,-2.3018155977345462
36.925926537988076,26.5961536753309,-3.076169041744884
-45.07102910170386,5.635499135755597,3.630879431034852
-14.628191273008138,7.620689057060385,-1.7267896792856985
1.2659906989514291,20.058548984122847,-2.3538031595537454
43.44410313022896,13.099345260709566,0.278427249104944
30.744841739497645,32.18439517507863,-3.0087344581795605
19.564759582217654,-0.9939476330166309,-2.294254454419474
31.751972057481407,37.608095322844626,-0.9061230670175751
-44.66466591081023,4.474498824399283,0.27543420878169383
13.566356982658366,3.0226104547578303,-2.3239468027809957
2.7200251316749604,18.128046266986203,-2.3751863744404207
-9.656158864704508,38.824837040939414,-2.211601575084639
-32.58122103921207,12.172818202057565,-1.0674006477970144
26.78300195676528,34.201193808192,-2.9364633895628227
5.3787527940671325,0.4541321911245512,-2.3531982035797028
-10.689379936246429,10.725183675175911,-1.9620361093683443
11.142407511365354,0.528718581634056,-2.4331272594832174
40.51815301189418,19.080827009547594,-2.4757562453747135
14.414076678864667,7.005265653606135,-2.2768542528844296
-16.987972208008706,11.392129625754475,-1.6350346119001464
23.943599636288873,37.67158036755427,-3.017351068684204
18.539180264665223,-6.41258172226348,-2.7869849559356568
-40.422207096555,-4.917006505358438,5.785141272031848
-38.0392599080209,37.24126296952025,3.5985274232625026
19.56554677759274,39.91810989388399,-3.0050762860178626
24.72776305086785,16.028397012380477,-3.0850402877443424
12.244945008805734,7.311537822503678,-2.384597936895018
6.363802250207157,4.3504286576049385,-2.390161124753174
-34.646279363464046,-5.515223571964532,-1.076655681944266
-2.484961366572924,11.835664387833463,-2.3285407333650747
-36.57787470349936,-14.039432923436049,1.68385974341773
11.01795033686771,10.200887449246924,-2.510561949672521
-7.258395146512973,-13.932754865505903,-1.8398616451912417
8.44496280367327,-8.067233933789302,-2.3976741866242675
-38.16842688346352,37.36772024842282,0.9833643352562019
22.140519947666554,-9.534719433855079,-2.8231751827780838
-22.614068715740366,-35.57976745364796,-1.8118717465836094
-22.134393729385838,-20.492963962203838,-1.6674751262401577
-27.12129891066058,-4.317347484420207,-1.18029250059543
-40.51460803313301,-4.4244273149168265,9.943357456898553
12.289689811186252,-17.062925289210188,-2.4626735283658965
-13.634766949641248,18.448741235094637,-1.8337795561572263
-17.534294928990644,-17.910015636517503,-1.69429380526614
-41.769137022129584,-1.9819880811119894,3.342640119417114
11.418834298642064,-41.53237846283759,-2.3810833030157816
42.48271808528445,15.120485791622967,0.27669281714962757
-37.845350608215206,37.051421546638714,7.52448792156572
-42.38773566986841,-0.44932317154004664,4.964459385926132
-32.84347204168005,-36.11565272622449,-1.4981362964875349
-49.4754200188681,18.484736733325494,13.574596239489553
-13.522816212363143,14.605956411508688,-1.8372042701013103
1.5665885812499305,-33.01485701711144,-2.2342439392801126
6.552555522755394,-48.85814209003975,-2.118620148073704
-17.582116187604218,8.88696880441477,-1.5747898624199703
-3.308729490233479,34.179843863325154,-2.321283894989809
1.767257465503697,12.850964660938708,-2.332919694008901
5.854463653296926,20.0627219705731,-2.4476114444001476
26.656733561064758,20.731500492772394,-3.116908586632069
4.26887386808612,-7.352778438230759,-2.2967937710347823
-41.35734403654242,34.05697213063473,7.611471783974557
5.241107358144281,-39.079526625008526,-2.179638767415078
-43.33412556908544,33.93501339223814,3.0425994753722185
-25.752018837841717,-32.066087279338376,-1.7675363378884552
7.554935432511675,-1.515905588628146,-2.389171670840059
-37.71044920096503,-10.867509098545328,10.086706235165357
-2.057461561493237,5.169888846580889,-2.3448906432410634
-3.3339592017121626,-10.463115810206103,-2.1143819072253325
8.642841621242345,26.016136631398115,-2.5303198323600924
-10.421777703800071,1.6947586751541435,-1.8989140472518997
-33.099060123244676,2.497180776369845,-1.0186720126935098
-38.123541865149996,-10.481615152982709,1.6992682749537238
-7.9774417913274425,12.307175210076664,-2.083679169042154
1.4049398337010888,-39.9606508760704,-2.2103701839929606
-2.7976153572760984,-31.863708780831924,-2.16220379621031
-43.39987451707406,1.6711766757793494,1.866617543698267
-12.901245509583175,-7.703419201383823,-1.5730964240331062
-49.57533409312667,18.522066085111074,4.884717771508808
0.4274506711322038,-9.008250767434005,-2.3178876195517297
5.3657473947379275,-5.253183427822633,-2.32828246672284
15.39151562662789,0.16315484908246294,-2.3798577096271565
-42.248063542256205,-0.44784260357946376,9.760350253327601
-9.59724936036038,5.4579900515187685,-1.9856013077993708
4.577376228368655,26.12072742991838,-2.4476717866173057
-14.368523087976813,-3.9504548097246186,-1.5600685958530138
43.886365245792376,12.06603501313535,-1.396816613612317
-1.530771499759387,18.130495134072024,-2.3575682660375756
38.63658554291659,23.070161305443488,-1.9340138776180285
-36.80144979017318,-13.098403862633017,8.019584414909467
-44.2649148311032,3.8864341364589943,5.203966490654371
-9.93447460889022,27.91203205711286,-2.002739537374255
9.7973467997727,16.74590100963571,-2.513880234049377
19.235184168462407,-25.36914678993154,-2.544931071893125
1.5657158045229975,-4.399055959040408,-2.314570916965671
-26.547338273232207,4.988665102805652,-1.1609187243832193
39.20170789799341,22.120998887511906,1.9345364201017512
-37.82729453648942,-10.901181933895733,5.59285893778774
41.34589223795192,-25.572063860311285,-3.2862653092465446
15.45458072107523,-26.61922357260106,-2.460473251584002
23.880586461805173,-24.55601955885043,-2.7380833696448654
16.255109904800037,-3.889057471303029,-2.584176421843862
-9.198751256803632,-3.1473883083407195,-1.8719445264501287
41.96480372699832,16.107060671132647,-1.3794746175675814
39.63778035676887,21.101705342890444,0.27553548662952293
12.748172022352982,29.602460661296146,-2.576417371268342
-43.40922763181755,2.20531710979679,9.480673454059257
13.98998817645165,-1.2283129387027505,-2.525693621444023
23.25169628444036,11.655236230322224,-3.0460478703092564
-44.24482625307304,0.07397443332911981,4.0837864705123605
-5.223026803076026,18.12399558598407,-2.2089476882286374
34.2886662891601,18.25403254476125,-3.105125688692285
-41.4086366650607,34.09921061718769,0.32914544398219747
-39.32244256202434,34.887768000463424,6.156446004190659
-2.4468169002308855,-38.76773872755238,-2.147325910076522
-19.923287062100442,6.618731177959189,-1.4191440184725792
-34.34086371700774,-18.826267234828126,7.04318846076847
-5.665480810483711,-15.16397267385325,-1.8958075156892722
-19.355125470030597,10.695148414092284,-1.4948250361947832
8.344662909865056,3.320926946431407,-2.4262043070803054
-10.870099733581911,18.20462079376427,-1.9570290654068176
15.811577730414262,-12.072002325502615,-2.5776070473314574
-48.668712823381576,18.86713315785707,8.72760272255811
10.206370452298387,14.44058675104055,-2.512284190293432
2.4222959636168953,-10.27620505749165,-2.302885435091204
0.3563568192595011,25.55503266386212,-2.358949189290879
14.98790889975512,5.128170978933136,-2.250533821656134
-22.33781999515435,3.3516811949174596,-1.2486465846290757
15.16665846626308,40.59440005700809,-2.929360477033432
-22.734671913884107,-16.37480449834734,-1.5488127337290016
6.051284176498191,-11.366828849462602,-2.3158902786472093
2.3147953847474185,-17.259922701089867,-2.2564308111962257
-6.065974323580732,-37.302205254425076,-2.089134562632367
1.1493600123962433,7.660095209970572,-2.297870247910499
-44.16533807152257,0.07384153432861464,6.274608210898579
9.284041743616225,-4.692665460405224,-2.4031285643372766
-41.63489777115981,-1.9756182919708218,8.025459896237958
6.015128855318936,-20.872603747451848,-2.274095798960935
14.417943950811765,-6.000369260343977,-2.61115152384004
-6.389667019841865,10.127810156392295,-2.153629360950517
-17.87533952033128,-2.174378071365886,-1.4394266467517602
32.65061171241238,35.90357780711558,2.085703235436891
-6.027633024405278,5.901183858161993,-2.168055034510834
0.4985735919516707,35.753670868820656,-2.417105729702431
37.91418405424556,-27.500968097463552,-3.1661404510595776
-1.9718054989683322,1.2195440323197844,-2.3470982380829617
0.04957817002115462,29.653184482967653,-2.3703784296859323
1.506314487021884,-0.43955468393765085,-2.3174698708605614
-0.16562404211231552,4.710838403733325,-2.336561586656527
-10.607036301054247,15.515961022066206,-1.9676674318694924
14.437177249244565,21.528754844730745,-2.713729597098503
4.315121689895518,10.73817194245436,-2.375873926022958
-38.58351672919263,0.06450909694076153,-0.7103177046281132
-9.015786922106004,-6.493682812202079,-1.7178880210804954
1.4077048498822418,1.4736172513869337,-2.2764315181821466
-7.9701398922823,8.399375302808261,-2.082408273444127
-43.258151060828034,11.47891936846053,-0.8239375573651216
-44.67768611845452,5.030292918694489,8.085779291962535
-3.1549095206445217,-1.9367281767878337,-2.24984783533562
5.132537491999267,-32.24227004961094,-2.2069496721639608
27.132480207548383,12.777239896108538,-3.139724310411378
-7.468393316664593,16.377605353552763,-2.108054162522172
25.989333113875805,-39.036917355224,-2.5924420152320122
-13.251369462034294,-11.39212453926354,-1.6129455937725938
-9.082713558912562,-14.29025622661482,-1.772667247438767
-3.786619504421493,28.23435728937476,-2.2771658543331985
4.7842412231478395,18.029347789566845,-2.4169535158328412
-12.507464877324526,24.951855875667217,-1.8867327100043296
-11.97509158140589,-45.127969277231614,-2.006628829392993
-38.66429320952657,38.793798032839355,4.378225638254889
36.63186329204511,-4.124407920947477,-3.4024702557208717
-6.458993628589099,0.9691405646446198,-2.1132890725988953
2.5167319349779462,11.120511113723344,-2.340765427954059
-5.591046505852413,-10.118177180875897,-1.9328870407392365
16.54939283787294,-17.87495345872671,-2.550236343962019
1.823701154166707,-6.328275330466541,-2.3109579015794304
-9.223639569213159,-9.65551435793141,-1.7301879817052048
-42.991850912661086,1.1273165121775577,7.734481482766168
3.7571655694959927,-1.096371135397068,-2.3133556730110345
-44.12929332883953,3.874526646338512,9.66255308531031
22.34164044588641,-39.59271763338272,-2.513080000625382
35.24937763210728,-7.523948236897069,-3.326794439206255
35.73856372597374,29.230021619517995,-0.849976781257113
22.28215167492827,4.110077598050999,-2.0913290375562243
20.20509488719624,0.9587523252621439,-2.1176650219748576
-11.364411872233118,34.59465038074032,-2.012918067994822
17.26231235499787,11.800878690607632,-2.7094189009493004
1.1571351913345582,-24.38588749376538,-2.25334074522049
-18.194171571711458,1.1483209479980478,-1.457274306631172
-0.30678736834712117,2.287513746671778,-2.336492861258522
-44.96807741143453,6.7472412018805965,-0.2790128570782462
-16.576230433709064,4.398644137933845,-1.5829304151258032
11.606268637324392,-3.386802547893491,-2.4821304397707418
5.671434710194177,-8.989390821282873,-2.318394157312363
11.91555240454403,3.7529196364204966,-2.4053402591086313
35.27661196585931,9.234794940888543,-3.365736824423858
15.774385839302049,1.918815506649873,-2.257596927894579
3.939301899864985,-11.991713561789163,-2.270021620482838
-6.286336755322709,-5.404326806943634,-1.9150974115416797
3.2950697355095433,16.421892817168352,-2.379571642814173
5.9551952935583525,-15.515469069909916,-2.361085263151053
-21.09923474846004,-24.377351109996262,-1.7822246789142413
-16.263624200768813,6.7684928620204134,-1.6259357727839876
8.194778220011674,-6.256642026220315,-2.3817750739648544
-6.78720965126964,25.926916919255085,-2.1423477974575165
17.027862632989535,13.9268269624035,-2.850309629482993
12.509490983709824,-14.551095033748807,-2.48637634793732
23.03451795783166,-13.858759060237816,-2.814318604771488
-38.267961177090214,-10.017877414597779,3.6511410521511416
-3.7263062875622173,3.3886923573561614,-2.269705171818501
-28.952918550770715,-25.515177231377315,-1.6585768899242987
-38.75246511228525,-8.634123836322546,7.644405423437144
-20.069799238913177,2.7599875551707362,-1.3694433441625962
31.811207862372267,-30.388346462642797,-2.9738473173466486
34.53956584807887,-29.16125691214038,-3.0556618159799718
4.3146616097926405,1.9039330865824347,-2.3377094364038045
7.80027888503021,22.55110073095379,-2.498132012716277
-4.408718023428315,9.990963725637972,-2.241956084785986
4.700504423104724,-27.361174577874895,-2.219200195375908
-14.812186557185026,-42.82297030915258,-1.9474287200066818
-6.762030401357709,-12.237319369779668,-1.811590504379939
-11.495832651249058,-20.214102905575935,-1.8588728139466342
-4.302627872269428,-13.503132759589903,-2.0134337266519693
-7.581059193838593,-1.9845876116899315,-2.0141266625469583
12.713229999847414,10.660987139970478,-2.3571869938817067
-7.870058528392971,-0.0834250662909803,-2.022860296444924
9.391220683030543,-32.587702231588715,-2.292506974489169
7.275795690059032,6.736241376007864,-2.419106970470779
-8.997668445174735,3.744593080496328,-2.0007960626811765
-1.5053430987754919,8.160985394929684,-2.3514617207899495
-34.301287569912375,-1.2059674754463099,-1.0533310214313374
-21.944519481050662,-2.9430648847592003,-1.2239433156947304
5.362059665558061,-3.5011757429304775,-2.3357740107649225
-36.013085099140994,-14.846614924614148,8.998686531311229
8.138901250655248,-18.444243140461406,-2.361028319138082
1.3312819542699657,-28.055919656082043,-2.245218582799
-42.34399067080625,7.42032842809762,-0.7914254251399269
40.84729121112724,18.626876768578317,1.3777597183697432
-24.111282787614698,18.88157874553863,-1.3161821173942174
-14.266340713426239,0.7247722888865442,-1.6729372825921558
41.26709044314779,17.60814624140511,-0.8259889198282175
-0.45255514770544647,19.78318373112248,-2.317486077601009
-34.818210704207225,-17.99109425174619,3.132849614040951
9.257018158738907,10.179290809360703,-2.4744745006518176
-5.847017571355102,14.182973185643966,-2.179497267990814
-3.7574189202388295,19.056277945819048,-2.274718625368167
-37.83567810975414,-21.966626482887968,-1.3426575260420004
-38.26569044306884,37.46294338918245,-0.9858702157298187
-34.88730506605484,-18.026796349904682,0.24095733092916397
34.16858413497651,32.42245829709856,-2.6038399234116216
-26.115930509669898,9.03333029052008,-1.1876549608087268
-36.03872396514777,-15.377268305508101,0.2404223932241868
9.96088746676119,-20.495581871549433,-2.385680047854267
-1.0482187618961862,22.090543082501032,-2.315275957050087
33.409348370330996,34.12523595283985,-0.8791963072170578
23.16774679065342,30.34447967634233,-3.0517909440046904
7.076489132696479,0.16187999000613174,-2.3866383904031307
10.213598801728791,-13.81967451795167,-2.4413885828325985
-10.446984262131778,-12.373756793916563,-1.6953727165998105
-19.167593737012922,-8.740662988987962,-1.4240472580653114
17.762601237569186,-4.713457750273763,-2.610881355748682
34.97923075422302,30.82595181367254,-0.8583385258897005
2.7229667126009782,2.6480693199093164,-2.3083884674972706
19.859173998889325,-15.948744181610882,-2.666529660017632
-17.435753294744462,-40.487467544579914,-1.89456021017287
-21.544468758199194,13.32506087304701,-1.4003528100659717
43.600057347979345,12.56479384271398,-3.067213356990879
2.592445024989812,4.431080031015045,-2.3134213757110818
18.454700749418386,21.32194485543219,-2.9522051539166
-6.167441797995898,-8.502737890693764,-1.8890796626785105
34.499478967026626,31.94108624929135,0.8655462524164323
13.558226265188,15.281647526110099,-2.647064833759592
7.6832775636858734,-14.869466713252178,-2.377865025929922
24.97546558764529,-18.115897769616375,-2.847798071088737
0.36187545837345964,13.80064568138987,-2.3082947848060664
6.81818600403453,15.83247249973794,-2.449039871770661
13.600281316516217,-22.77697262434497,-2.4485650073572036
42.816696347901946,6.278113219372242,-3.4592186373420057
28.82915804216194,16.737623802890322,-3.076871848194694
-37.36803479661352,35.69662594832706,3.493323187073043
-50.445064988485456,18.144728365798667,6.278355068116837
38.24649280449893,24.12983161451551,1.9435528447757409
-16.461411607019926,-7.023876406205405,-1.4306485620528913
17.36196565669286,5.46832069783124,-2.131790540386997
3.991711334642908,5.363434787070499,-2.346049791734229
8.40978654146619,13.597264968014468,-2.4719189736750242
-0.4330612130221455,-16.515417724469344,-2.1406761687214018
-42.49433469461745,-0.4504531543316814,1.3041923161264488
-16.684728638296317,2.0861909678002224,-1.551985595337135
1.0344761465620114,16.390397240601565,-2.333228156913577
8.378100910381729,1.651950867102314,-2.4196794843157248
-8.067286312760077,-5.089676099401412,-1.836585375761003
4.148463145863452,14.89370195043725,-2.3904150950599155
-4.05832266728342,12.885209677094808,-2.258771986777806
-40.368203062834425,-5.413936768934373,0.24991699876918902
-50.51468708969027,18.16977093666077,0.3293994507426565
42.16123347095152,15.591589319760384,-3.0386465862918435
28.522474902121072,-31.575636658783917,-2.8763275342111383
-3.557475023029295,1.7436683289421426,-2.2765656633558624
3.2675457438219078,7.58755013431489,-2.3408535073569907
-1.6350847483318949,-0.40666334466515874,-2.361457027495211
-29.04275398389993,-22.020556160815474,-1.5664168705293149
-18.344407335985153,-27.355226128360353,-1.8207243081195648
10.412935047489736,-1.0431661063261641,-2.417551766119784
-5.482790783653139,3.976929958734743,-2.19157765899401
-4.580859563011761,6.880616574255352,-2.233004914295825
-44.61414531570506,4.469437679559255,1.9270196222507217
-43.603766473998895,3.828385689870581,-0.8058268628594603
-4.87801372614625,-4.406341052746542,-2.0381771437551697
-1.8027536785155938,16.507867225912587,-2.3592272097944886
43.219834559719736,-3.260749387400942,-3.464665794182934
-15.338002949829535,-13.185991099913489,-1.6168643581033117
41.697885819144936,15.420239344807182,1.9107033436939225
-4.838456486011067,0.6653818271252836,-2.20087986180644
-3.590587682087945,24.48778751235217,-2.284381268459891
-50.48383307935905,18.15867297025745,2.9657625438136557
31.411088605637943,20.91233889737831,-3.0164633400303633
42.443065467550745,12.231368491016525,1.8983488077357484
9.319213849784266,-16.05156694092627,-2.4049558971906926
-16.30317675201974,19.441542612832215,-1.71513059957008
44.20311724451812,-0.07390469861584144,-3.53345239198397
-6.0246243723795505,41.08790385722574,-2.2956058112687794
-12.258265345491987,-9.29436032905916,-1.610502602423187
-3.357997692327648,-16.735511722083686,-1.9990215068489676
43.86293125348176,3.1617983164899606,-3.5153516648314906
-2.355259438553234,-23.510314805007383,-2.1808550229701953
-11.622060945067794,14.20990278827256,-1.9218471366340943
-13.69196256864642,6.299095967978747,-1.7650712205019372
4.379201923992853,-23.74116769275058,-2.228267453955424
21.632344219757996,-19.672392410112018,-2.698815299069851
-13.482387315638736,11.102484933689647,-1.8284637011053477
9.73809890747015,4.297136226920871,-2.4589029568729663
-4.578391988342299,-1.138695838895758,-2.1960644529373123
-40.03077125291372,34.647679151685374,0.9746662076151844
-0.9940587549252726,-7.950183292155419,-2.270260804061944
18.616407557453567,-39.531957895077156,-2.415497360452169
12.348222599339945,1.9656716277466302,-2.4074791059920813
17.81358028211517,2.8356833598879496,-2.112479926702888
-19.86153203276443,-38.12493691513098,-1.8475452781748327
-10.783440166881142,-6.43886359474525,-1.627365874835303
-35.98993535111442,-12.314095530983654,-1.1673667598264703
41.713902774956146,-13.291686006211972,-3.4996524661487807
-43.33630896407263,1.668728989680229,4.002889304752029
19.77860288675216,30.290981249452255,-2.891824126729638
42.40224614584098,-10.14479589121803,-3.4851513811117605
8.875631567846959,6.902764729255736,-2.452527483902461
42.686043132021275,-6.9414781203420235,-3.4569996300879224
-39.25646016113535,-7.740387003717794,3.6931191537546546
-41.18019544993299,-3.476875236066464,1.2682856021530107
13.440941139753539,-9.4998372895047,-2.5448041404901933
30.718289362481404,-22.281442073435784,-3.0334611730232086
15.529913089265621,-40.461122485021804,-2.3957663057792673
-37.992680302201784,35.411915515345974,7.37871861670552
-16.47709490146289,-1.3911736600392104,-1.5262406715877082
0.06892090749453998,-1.1533281611373354,-2.3308599597579183
-9.664818146112601,12.117280331250912,-2.008317071136909
-10.897086277018353,-1.4614506367194597,-1.8383322972655933
4.317887583200694,43.10136484838313,-2.394548631224937
31.703416751364696,-4.756943415392844,-3.3562058806504433
-39.96887723107694,-5.860544084695266,7.265020990100176
36.45995918622373,27.644368000581352,-1.9664627948083475
-40.67270215317905,-4.441692098584176,4.283367828373767
-1.8932600942330902,-5.263546886362577,-2.276872148404194
12.251938848526079,18.270121872774858,-2.5762526956453953
15.071276664064106,8.504519629263688,-2.2422755908147467
-14.167249803443768,-31.817108233404152,-1.9253143856296977
-28.976058371685838,-18.78211815924819,-1.4840634186841508
41.92803033115283,9.883230050914257,-3.4434387660896357
-18.15242250855229,4.579212551917072,-1.496501412545293
3.8276347158082356,-15.3898973883591,-2.253062338683519
37.011622700443894,26.657876928333536,0.8397197281989989
-1.8749250096152672,13.980095584055638,-2.358434225232325
-37.942431365166556,37.14646571962334,5.558954461755849
30.47796030753116,-7.688508700771072,-3.2907181677307977
18.22192609472336,-1.8254695345072862,-2.372875025148778
-22.050171288311535,9.818311662976969,-1.3342982547488085
37.96865163287546,24.611066562898714,0.2776377753566034
14.96696112175872,-7.5651255609227555,-2.5928927931093146
1.054904975512493,10.530113013325598,-2.308335157787621
0.8954412902023443,5.967812925376196,-2.285371076818906
27.756470574204062,-23.434387477503563,-2.903792677533026
-12.032261313965973,8.068831223718998,-1.8771504510677992
4.957320689012086,-40.75362587316237,-2.269446584676634
-11.378904425246656,21.374315818534264,-1.935623175502005
11.590973188901149,-27.165025344105437,-2.360891360623138
