11.882444399853775,36.748168540339975,6.457609284177599
-17.65319867786896,43.34514354427731,10.811838978030025
10.683613023302819,36.038961203947366,15.840855928360217
-25.93156662534413,-30.449555392119056,-9.239379853272995
-27.742113939582683,2.8988676622943026,-1.1987892383459096
17.83271341788732,25.66411787046811,-3.659968978184477
0.17731402437777471,-28.006602278456178,-6.469985751013004
1.3771953366136918,32.19070421585898,19.581735175093655
-23.050555169395917,-14.801882695144611,-5.623931400052467
-8.955654181132424,33.125909707103574,30.72003804338039
-15.592331713774362,12.63194495203761,-2.8509405855318564
14.000052044294279,36.989511446119835,32.05398953251311
-6.0539070168164235,29.459069478282508,5.028560400872075
-8.801885467472069,-24.14641472270251,-7.968733330684327
16.679743147917524,38.28126504234906,23.317922085795306
-46.99051784918449,21.164361799037202,0.9487842033654128
0.12469736815512568,20.989819636480505,-3.774958469344613
-47.39566725725181,-19.98440537066221,-3.4770040738933394
-2.8640896417456823,-10.61036533446065,-8.468789344108416
-11.663840988558295,26.74088730809905,-2.332067943886883
24.909930048191903,-34.00754969692076,0.2586611963038396
28.548150824062564,-11.2075208288634,-7.084968751350844
34.36569886610129,1.061369938452657,-10.199737830867582
46.62994300390448,20.339049869087596,-5.957881707217126
29.734892399807926,16.612050923297836,-7.868399708051847
-7.337787880159555,10.017699187320758,-4.357336452147251
-27.966128590155915,20.46792957261794,-1.4894432384592085
-10.884079087450093,-53.06832580979481,-4.330403490532965
-39.07666182441671,28.59953817264166,3.870879664160544
-3.1864705291074755,-39.960641073660845,-3.7000597064141814
44.64089840753408,-7.455112526140427,-8.139579576733366
24.78237007997921,41.94686750266709,6.921781261561527
-16.408409014448164,-4.006650282280026,-3.6841730561423973
24.279286906068076,-20.168065418115482,-4.4842030066034475
27.63742117043898,-40.800750331689116,14.619360731333327
-8.467404528606247,-2.7415684591770613,-5.868236709922679
5.524860301248396,3.5477815386727314,-7.155604896820024
13.29635260047818,13.800490969486473,-7.527651872571774
-12.683678324606543,39.17386594000867,5.849909910371149
-43.38928340751206,-4.0133538886808156,0.8021999328985009
20.759586462625705,8.753289387078874,-9.170494910370827
-39.5408439125553,-19.609641886089523,-4.620662983467023
38.413722868748785,-23.335603198514423,-1.9316947456006748
6.532261169061719,33.96222982108274,32.525176804657335
15.974747145955838,-19.702816931833617,-5.207449369949572
-20.42193652402545,5.782341108880257,-2.4857095806508336
-4.623685622400651,29.8663529519474,15.445693530603956
0.657826258332825,36.11524836430912,39.3654999831974
32.236070172838055,-37.82256123756733,2.1358371914273824
52.706700523281334,-5.507502062240791,-7.5288462576254975
-9.074089924612835,35.2767160910539,19.183185646629124
7.803967256554555,-50.409145332135196,-0.31299518705567203
-15.542326159376554,38.162169399629626,-1.2645738198435632
27.37111914791739,-27.0267182324667,-2.1263735076710875
5.737255042466976,34.35444047166841,2.7842091677551477
-32.05731340860689,26.629035541905782,-1.2789637002737833
-44.30825072923605,14.326981361451466,0.8572910347071028
12.438135494892949,-28.516059153933224,-3.256995380253653
10.634470890977683,27.08845993378561,-2.686024687057159
-0.5810586095008603,31.231215901297443,26.612368511870056
-2.9903895497405344,4.414671566533784,-5.95615519959816
-12.675786968538528,-17.773007965097715,-7.962383237567251
-25.09409733302573,-23.035018612919917,-7.869083822020942
48.07984438058423,7.443362286230295,-9.367637225897838
11.931275804348177,-42.075945406491684,0.2683572863817926
32.07600587366905,23.495108282112895,-4.65648500389829
6.205995228167585,-4.66008111589826,-8.457893411359144
-17.77271408976283,43.63859816283251,3.7665302359546655
25.103576159839783,-42.45270194018257,22.224942991282138
29.548883246711515,-4.9347181056921,-10.10111897461156
-5.396677702221063,29.973982438588347,-2.0587550311609135
-35.3073920798508,4.567854400867938,-0.21845170817344522
40.713030468883204,-1.7418008417949995,-9.942087371657768
16.6728857929849,33.6521651421815,2.5387044867147455
35.26445813827266,12.870244734338996,-9.648365142729558
40.4661289283593,-31.169873244155745,0.31342101317881316
-21.167609691118386,17.583289766591708,-2.1996949105745034
4.96491856241654,-17.508910681939284,-7.669535957422183
6.621043550081288,14.231442660709972,-6.165616371486859
36.399047762112254,-13.776569170820448,-6.017364244218562
49.166868026108595,-19.302080225390025,-2.2700918913944705
-25.94063131068116,28.965043195706208,-2.1494350236818063
0.2173083472914797,-34.32367222918863,-4.019849519654433
-30.68039245855883,40.82497305267475,-0.313354714839831
-31.3221616693772,-7.2422282720406415,-1.7771548413745306
-13.646169060164496,32.363699400395475,1.077899155891842
-14.983101242194278,19.93731681510609,-3.2314975640654224
32.00509209103272,44.87506440976372,6.455177477140215
29.88349407585972,33.39381916889406,-0.8249934518689339
-3.1084082089299794,15.125903509810831,-4.171539487162477
44.960025135850344,13.949914501906063,-9.063779149315524
-13.781654258212638,-27.816570615805265,-5.977147651816391
25.50501325541527,21.73785619372857,-5.603253118096973
-17.67439032964684,-10.746300591172327,-4.778467292457721
14.144993285275566,-10.088271040426298,-7.82924252506189
0.1904765489977259,32.06217154052395,4.957306855978121
27.99879101361329,1.8981464750524644,-9.847308268867174
-23.49673414751787,35.62165435489519,-0.7856064674032465
-6.686150834181438,-15.874396385831233,-8.276536541583086
18.701960754144878,2.4269669397209315,-9.63819710208296
24.65558489007364,41.73226972428246,13.7345960609892
15.40313368980203,19.997039734807107,-5.505721055868976
-21.480283502663795,-0.3996419384755267,-2.249174500754044
-32.59823902278402,-42.32049751375817,-8.931912557465587
37.127886639071775,-34.903236162093954,5.334825340317946
-40.97613534132859,34.03762974352126,6.238543858205133
-9.782241307764247,36.183358104290086,25.378959371824532
-26.257287562327473,-45.715185877889944,-8.151072291490914
19.62896940094562,-7.155179868139872,-8.804495482311777
17.59421866174986,39.063849593849916,6.08676419713671
-17.04100613287981,-45.024010583050014,-8.049295336821718
21.206828900308178,30.520008021350115,-1.5972521946519906
-19.156826694001683,30.653321067610023,-1.9981920101394188
-37.671728033445596,-9.198785794910133,-1.6666208717591193
41.3010327606557,23.74338603845827,-4.397109541593478
-28.49823029980311,-18.300099881193287,-6.0909581623770865
-33.251192450214795,17.503381652268214,-0.6917818054487667
34.49551881660157,-36.665497089022864,16.28877729435772
4.812974660281205,25.023395009020575,-3.3017681351756267
11.23321542740483,-16.152931017248676,-5.83673103971248
16.081068450474664,38.18000239920887,17.458788496432327
38.87096833742498,-33.93515900514598,11.255014658613101
-5.404120374511711,23.372465723665485,-2.8094493529098616
8.410664792400782,8.729559677195272,-7.16495489607315
6.063460276014661,-27.77258296456021,-5.112384402384428
-2.473303023862788,30.864972617917875,10.01879112799036
3.29612773052734,-23.16815357039888,-7.5718544910909324
-3.686568099241986,-46.23222567468104,-3.7073782835199927
-29.605511799409342,8.382611890197982,-0.9442889242804519
-17.614378287631144,28.97028559999429,3.97072766817369
24.768894141741796,13.441552512898687,-8.737821278812417
35.16168276602995,6.777194611435698,-10.146598262448375
2.3866535656418613,-8.827950356117034,-6.869680246947397
45.97801307546389,-29.499380874234838,3.0197954890245025
7.0366787180334605,28.866149040149296,1.6424337079805478
32.46576660591532,-24.378540477553337,-2.2443341136283497
-44.53579084084142,26.311915910099962,0.3174010945362526
15.158696608622922,30.595960888080867,-2.308145786571061
43.090529477260446,3.452973640225652,-9.429076247146774
-5.941823564044771,28.913657364519608,32.972299761033334
10.35036284991465,0.8294056842904762,-8.206405427370974
-8.031844418252692,34.73719964655428,5.065339767040035
6.597379682489735,34.300790981056565,19.50518754360363
-18.071383286495273,-17.001862559991,-7.030606392852125
26.74962373268332,-45.23633589513594,11.463016101362976
8.61066197675603,35.323007048536994,10.785722830427918
-15.451481848968342,-49.86827624265551,-6.114175068391609
19.539410841470144,-32.136377639312144,-0.692400104798496
41.395064701892174,-11.72074861994174,-6.651810821360308
-29.983505858106867,-2.0326979806595458,-0.9222832906651232
-3.142405959225064,-24.289337955985967,-8.594144481909153
5.8111745611567684,32.348552399212096,-2.627226665365025
-8.117161307517573,2.62466734404309,-5.475789975384338
-21.9423433068816,39.275897975651326,4.152521542733042
-31.40762747739862,-36.879695948389255,-10.566043876384612
11.159558721260032,-35.96681833026964,-0.6932836636832046
3.5238393863033872,-38.09703057736773,-2.114975102692008
-43.237937870027054,1.318494185730777,0.7963739093136237
-27.532171864695428,-11.608953204359166,-3.8715636064131296
5.138446703273136,33.2773122257025,37.61223767599091
4.2914207285718655,33.17068823701913,27.794550668322515
25.072104769583166,-7.4325301309903615,-8.8173186171692
24.662391251325914,-14.981931799056602,-5.9241883468484495
12.32589819929915,36.5799747263145,20.93808778195735
1.1205047912409722,-13.983062069719516,-8.060793090740736
41.814579640506565,31.424092116488318,-2.8914581601398908
-6.94448874629719,-7.760237167232818,-6.866227656906259
-34.25512884137136,31.419722259411987,-0.2852159668007149
14.221536201139289,37.57469432464289,11.384042962879604
-5.484655564262773,-28.51556726561933,-6.708175161251299
0.18913551409209275,31.836440386675957,14.346746077596134
18.653794829920646,38.8414337964551,33.203227880854136
-30.668619789472277,-28.853555386370846,-8.107550640758724
-37.97889445078126,-14.391469250045725,-3.2465591742676088
46.777363292929515,-13.866971493544908,-5.107804825812523
21.412517938992494,40.67738274682774,3.1074022678668975
-5.965050200905557,29.02668108740271,27.868571242024093
1.8593996938756516,15.903751850697939,-4.96470231426091
-9.860229906883768,40.3805358316859,1.7864602274192325
12.851341606796336,36.64690170165451,26.995697001000806
25.346607940623315,41.72412278401767,25.710735626938362
-12.177180019038902,8.684818017411638,-3.84420033455419
32.09354834429184,28.742470688744234,-1.8516069306242526
18.00519821956335,38.70083984771361,28.14338365780081
14.969932687338058,38.13188507163647,0.7541613281780821
10.25136207298269,36.205519805419335,1.617208585671613
-10.80292043035611,14.013519636196934,-3.632583736502649
29.67520691809346,-39.48741934771913,9.510596663008386
18.207511023853904,12.996400189414471,-8.47177215393845
-29.43906225480314,14.138258390875302,-1.002251135816716
15.308695266652133,-24.49582901336279,-4.103855502610833
28.457492926596917,43.17894734016627,17.436375341509986
-39.74407514917411,31.398265558281654,-0.31078962485556594
23.89182245901028,4.604999467858659,-9.557642120479299
-33.96582572267237,37.00199904345929,-0.3081973829751225
42.981448322808475,-31.45738439856956,12.304436121303214
44.31748227785429,-20.618287772168173,-2.100714904006722
-39.48471242179834,13.846505543898024,0.2567436380080711
21.340510827340033,-37.12129076204541,1.3140615912917235
40.20590328409745,14.673692503725073,-8.78677524341767
17.24126221993616,28.381570563653526,1.4272121168007492
-1.1175414599286744,25.884954012150647,-2.71243763156458
-6.0922742118894755,-20.551028335376518,-9.65929363092228
37.19606423051626,-18.42870223189823,-3.831450897926412
5.686726536034826,34.05187791283205,14.54889874238741
-12.149316481941415,-5.84060708288065,-5.105128304342722
-12.754992511004303,-1.0220958864062089,-4.667200974743597
22.575982000230166,25.227915402466355,-3.9648147380142964
-33.825964262640994,-19.446073716008137,-5.543206803394806
21.08020509903194,40.046087696835265,23.833734823334495
-38.81234259761483,8.457851597084778,0.2437416057408195
10.061123474663603,-7.554896480776742,-8.07594340370132
-19.94316792517356,10.498055974149938,-2.359466544811014
21.18616719214263,40.24738399605609,17.22488522141641
18.311340570925378,-2.597859179936283,-10.032011194523058
-16.959379038168258,0.9341866389368162,-3.4870207344664403
3.8535946205263234,-48.08997979444468,-1.480576010751332
20.21755911839559,-22.57471941073955,-4.3053923675919386
-6.21790875971219,-53.18279779783418,-3.619529467222004
16.06166179566371,-44.008937803105894,1.4377390787229907
-13.25779466886675,-22.440265178744603,-8.08141388007617
28.34345995556889,-22.39165156530173,-3.333968900224355
41.833927125122436,-26.840545451659228,-0.915044002849178
10.782902004460826,-46.63534304112831,0.293704004258421
-39.877913579744536,26.281915459466905,-0.2930534064484391
-4.511446473395332,-0.19477448080076454,-6.4960334102680575
10.53013872403133,35.5212473645202,34.842881271218836
-2.8182773454844536,30.469038578701046,20.718366049983604
1.4713867874571869,5.729476877663864,-6.289967161711957
10.530614265312899,31.252051367714177,-0.6071300632037478
48.12663476272269,-4.432598802348356,-8.691917150128678
-15.93378332802701,24.813232155958463,-2.7217935529132045
15.806840553739569,-15.229409299043194,-6.511577200351535
19.902849086380666,21.698939733947206,-5.295380696951151
-8.198309693558583,-49.09113160403515,-5.210558460359516
-2.4894605183191376,31.06660606887711,1.3394572368727793
36.66834044452168,23.546525014115794,-4.562166824967782
-38.06121568704366,-23.786398578852697,-5.815543188011359
51.292490717968825,3.477316588621132,-8.595915225853226
20.250640308607952,-18.121913119130458,-5.579042304364162
3.980422959816939,-0.715053099170395,-7.6790209789061015
-14.757846082794641,-13.884430804402312,-6.28260626460211
-22.126870409486827,-10.30482326448854,-4.081204956081387
35.62190390437172,-36.04768215847693,20.628510451104972
-2.8402183011710265,-5.913979011684238,-7.70063742854977
36.572269966982084,-27.462113387571566,-0.8419761240974621
30.000291855966406,-33.49801857497825,0.2759245922355025
-9.946054942986356,32.0557434368587,-1.4424796952844068
0.8235116561317796,-44.26278160129054,-2.4472484791130054
-41.24171336702414,17.96965657171992,0.27603732770836403
-3.049199548294799,9.037552149507622,-5.173704050884157
15.095783196166208,-32.41418410952799,-1.097354884007054
3.8712954161243416,33.11182735028638,23.17411876874659
29.14109554001033,-15.799533590655367,-5.125192766275745
-14.774323081809653,28.04024101234468,0.5834893310106161
4.376684866475838,20.084224761995845,-4.7485795600889995
42.40910567351193,19.120822898047017,-6.609170169398102
12.71198184210459,23.44632993360915,-4.123625359467371
-6.4284742971478215,29.444463660348585,11.413584554253818
15.162443374235854,9.736542419385621,-8.387647717430236
-21.349517574142613,-44.45454026931864,-8.869074677740691
-21.7135745219519,-19.446331472913283,-7.491706957433003
-21.292256649828687,29.068627442058983,1.5486035023654252
-8.246928819802738,32.061018682457494,25.509870140023693
-38.93891301361704,0.23133023797787217,0.238933392699096
-4.157502491704164,-35.559803610004856,-4.192903304321511
33.30620328378391,-10.319791143236692,-7.605516332120345
33.30718573375975,19.69555376982845,-6.469856146241304
9.511375140821148,35.23603577425341,29.57956511094737
3.2759111822745925,-31.23248108531,-4.461560940945836
28.631516077287042,43.44299507195348,9.357170662751571
15.010468124527243,0.0950335383239861,-9.122766250072694
-16.29944890863251,7.3412137089952765,-3.4419452610639114
-25.687730779945024,24.148558268252835,-1.9489555725719703
6.18506059147632,34.429830756253544,7.181555949143052
30.934215470331207,12.59859368291012,-9.464420546988691
38.02522028286669,3.5171971903035963,-10.316078942757153
28.190725567071514,-40.53717729833439,19.395264873642653
36.59965356637393,-33.570183173776925,0.9143028315425117
25.7899642800457,42.4539503959201,2.745928895163723
8.615275628406005,-39.46071158393465,-0.7435780422702101
23.22026011377733,-29.36874515105932,-1.609063703808353
31.276152032869177,-38.57515190729146,13.415617556656775
36.67977591172876,-3.3783108164186326,-10.437366789766779
-19.59339205664303,-6.879602610847239,-3.210699500558573
25.47723832249644,17.71760841833171,-7.168826812968693
-25.594891827263634,6.90891050904548,-1.4655135261880736
23.564650344723084,-25.04701040189795,-3.174148290820792
50.124928155918326,-9.004566998385307,-6.598768215888911
32.27262538670013,-37.865451447429685,6.4465502751268
28.580290506478292,-40.04000699251283,2.114248208868156
49.16449309711781,17.26256352621889,-7.4028822173775914
11.920153370312802,17.612360941488983,-6.30903654931859
-9.716798742827892,23.044676660574204,-2.9289484880702896
-32.43188792555369,1.3875137527015005,-0.5976123204260667
-4.411291765135459,19.07854718854818,-3.5216844348438534
-2.933180338395283,-31.846802549412224,-5.75169592930702
21.321036211377642,40.503594813099774,8.813112313615365
-8.161493674999873,33.42371231661942,15.504296686502693
-16.229259501274363,39.84884527368743,2.9085293935526497
25.72684540639728,31.756115867242755,-1.254256140657093
-9.835127922061949,-29.18803360225324,-5.930371096218555
-42.942271337076235,21.936033425455825,0.2958817342649582
-41.68827674590186,-8.56703743806486,-0.7835129914636718
3.063043968001356,33.256787921357336,41.20805862205587
-25.974370598239112,-1.1214018779194634,-1.4371881189096924
23.913959976308945,-11.125742781873628,-7.125107151092026
-36.061343888084416,27.77699641088639,-0.8379984549879805
-7.456067257464038,-11.941008324303978,-7.413971484605765
2.2227428423807103,32.97749823706225,1.0143508011781124
-17.07347916626936,16.44977701254081,-2.776602409044065
40.17379251692696,-6.203352311522946,-9.390609582915738
-2.848618209797221,-14.81040390299503,-9.165975492124861
0.1288843321102202,1.9121792921386207,-6.763677331873506
-25.06179093489444,16.517209941201475,-1.659225062894586
51.74642319393979,-1.5779512500957962,-8.004373916822566
24.97142956699551,-42.229228603845606,2.1084939341310216
16.568993284018052,16.37328813432948,-6.910399241652291
-2.4358761804323494,30.397913593402773,30.123397785968596
-7.692113351046428,31.501462108552968,19.707451192107165
2.1726817601816704,32.2347720797727,31.13984681878294
31.817131699949076,4.5266158040335025,-9.964552969048297
-22.74385268715482,21.381073188804752,-2.1101280398128504
25.07111760061607,-42.39781121340491,17.283832221503744
10.816547005387264,-32.059268700028284,-2.2871599457233316
-27.03273173392363,-26.71343383091938,-8.289676049265562
-34.95320571017778,23.656542937859424,-0.7770087371607711
9.305709959195998,4.758180141823664,-7.652499263592225
-39.040034406093994,-4.094829511558112,0.2408637537461989
-35.55805733582012,-39.734956483176376,-9.589649549927943
24.503894547693463,-42.62391850255472,9.46637857210412
11.936125279322248,-20.185202521638647,-6.334906125768071
25.110243529940217,9.515108400288378,-9.422555839613082
-6.433848004410866,6.198816537301283,-5.133820697663732
4.5378104368774315,8.369662732431076,-6.4463504683853925
17.30466480367435,6.075988109615326,-9.091149416808175
35.33237780195982,16.454830801884658,-8.001757311718446
13.265602407002925,27.621994471346476,0.1880211813096183
-13.231812419750582,-46.73180434114613,-6.900222823240952
31.30920198360764,-38.61591481408783,17.444514401309725
9.4938545667055,32.025556865372444,3.0830969446693266
-6.937985196986785,13.989739911378884,-4.21845098845797
27.019212098929295,35.98244261945246,-0.27610459843784274
2.3144255770214532,-4.969614082721219,-7.886358846429119
-29.060710269500905,-22.402690319150246,-7.064996842871888
-10.089121655905753,-20.36364864005446,-9.25043706036284
44.8601921290765,-1.919226338929278,-9.21817450743067
-43.23111374665427,10.538415000728214,0.8191839506959735
18.83881125121726,39.226679969931965,20.25568831993051
28.920779875147538,20.11234681304434,-6.335302406412904
-10.496618783215334,-14.717546902903633,-7.1008747546736055
18.49060435927914,-39.70366069846117,1.3441339702765616
24.5285266706334,-42.666765471174074,13.295025260951245
-8.97165374547331,36.74155561886479,8.249565764272933
31.39260945272557,-1.3430509333538927,-10.16679396829449
16.10738296559833,-28.83155737578749,-2.2324756818253046
28.623057484788752,25.0082131427981,-3.9791961258956245
47.85092976336764,11.684371170595579,-10.112376475209368
27.19511091977596,-31.12606321440124,-0.7609318291779581
-7.257398052551542,33.24119897653605,1.4622890698367326
-30.397978105073673,30.015491315598204,-0.78646193301433
-26.45125844279239,32.62425989928076,-1.288952457512574
9.578927230071018,-2.839636556817505,-8.72575527280303
15.836935647491188,-6.670372713186244,-9.05010903765217
-7.639511136398287,26.940928931525953,-2.2384760535403374
-3.52986206269278,30.089669166243045,24.553750161282778
28.729273317237354,43.59132348327286,4.8186897350304
9.750032500937301,12.341637906872624,-7.087658755162382
39.934974015045846,-33.17276868641852,3.5093855707909043
-12.278667013552022,36.39286038969557,-0.70709302155318
26.748470775933388,-2.4636096022630922,-10.172793427429971
13.200244754855945,34.8763420954797,-0.22881651386727378
-31.32652093382193,22.927343059357437,-1.1913650183234787
35.13474008464801,-21.34368376373385,-2.778922918949302
9.671344984706014,-26.499475914703705,-4.716641656816677
-0.9808788446248957,31.75950795031132,-2.147897649764704
-15.149474753511537,-7.982215075453887,-4.6258498031944075
36.09831719649473,-35.64410509718245,13.038669332427554
-34.93033315471486,-11.78522174092751,-2.9468538957655332
8.400173327116946,-19.258500568490593,-7.0843056598064305
-20.513780843648288,37.800965749725144,-0.791779373810047
-5.523919086979194,-42.69732787110892,-4.50726537713763
11.323311836310253,-12.335492066552895,-6.815774017397055
-12.166038866502799,17.49429518500623,-3.5628751478239273
45.90791662214276,-10.595834962716173,-6.693637745511114
26.533226863875917,-46.15389187438771,21.669809028552706
37.613107480994344,-10.649911548016819,-7.526782744404532
-36.889824053491346,17.71652439021194,-0.2511067151228528
32.73122395483068,-13.786092713717457,-5.938369199653376
7.311396574148972,28.470065092409442,-1.9869637463033938
30.940313310611952,-28.37928461283511,-1.288468419152861
44.28542660875865,10.239560475128286,-9.914425872424664
-7.676701559947557,33.201230107109794,8.758445541266557
-23.826122450468873,42.64778567321504,3.9050632534121186
5.968634124085038,-8.1485022721809,-7.395503475238419
4.7091210149519185,-13.411770927385973,-7.045985277852965
2.9915453479824876,32.480496602173716,34.683398766280575
-22.84513687878104,2.9555640584885516,-1.8413822270108517
33.533238842931,-5.177965077643585,-10.065817655111925
-10.046452015317199,5.607527472913955,-4.68321629877481
-28.526600713513787,37.959022427326474,-0.8741585454607927
-38.86935407025434,4.061590757428153,0.2398009157342358
45.34999512983921,17.18462503553415,-7.498211990806664
0.2561767833436586,-40.46290928908264,-2.735259896792147
-19.910170552317616,14.200020667523502,-2.257203221905079
-24.108055583614554,-41.97327083170164,-9.3197853631876
-19.176140445907638,21.411881988929856,-2.653021041070571
-24.58318739826203,38.28270558779085,1.3962421514799468
-0.19924778395747153,31.471021312288435,23.042994546383937
-1.7194001293365135,30.99400132283762,17.334156193594335
30.52822716039314,-8.240581397038744,-8.542144285979099
8.536892282309768,24.343812644585707,-3.6650372554656343
17.92253484848147,-10.294109983921473,-8.118749674316078
-18.337962147197604,43.490908835375365,7.2975563535634915
8.649916758596287,35.48403960786578,4.7323842564873635
-2.8490028818782576,30.80121935403676,6.350450536582548
2.338486089065561,-19.934000683348657,-8.749776014660931
27.57042181788991,-36.6866795881627,1.408379113438134
-0.2830872294926025,-47.65096470238814,-2.6341686307655254
-35.211059812590904,8.126933350240265,-0.2217351952384772
-8.663627747035957,33.680990478370695,22.322676465164168
-27.835623992927175,-6.436080152429607,-1.9312703810950411
0.58527817849787,32.13229406839304,8.681739738561378
40.47168113632105,-19.43672935183468,-3.0349421303741746
-42.033391277567745,-15.927853266771766,-3.0385226920405892
8.161789821512947,-30.18949896986835,-3.662531433953626
50.446353267811155,-16.311724139997157,-3.5839011272674197
7.794317343238734,-15.716446392248939,-6.643726055743177
42.87581675467479,-31.38007446665547,2.9371294815510347
-25.092798835543064,-18.85749967709264,-6.846545162958734
-9.32414654467318,38.18511710200673,5.093102611597109
32.26941501224955,8.724099172895405,-9.91667321068164
27.34347646499615,42.6178001428595,22.074385244707024
-40.34371187638035,32.68398575263131,2.8702036986611223
-22.559677712687165,30.01911517075631,-1.6138679047533597
-20.052421129561296,33.910684755510886,-1.2090293352374508
-21.46897298332288,-3.8653898602251173,-2.2837401945485305
-13.188106583405967,39.08835716161959,1.2660293053342413
-32.27769362193984,6.208259168618596,-0.6051191548826466
27.589952787178152,-19.17087989347732,-4.353182077115995
-45.71919834552671,17.948583461473753,0.9042210025212339
-39.92869144904049,30.75590090356734,6.530528405880228
10.382490859780384,28.482525827154056,2.4233458690799825
6.684091981449432,17.660026982221453,-5.601692133653061
11.778458678250365,9.549796854181508,-7.749626042835461
22.375053802771433,1.5168915502169344,-9.776744857051773
14.569968309014683,-39.9216990907979,0.7823700676186769
-21.945893614416875,48.67498257559393,3.6092915616332677
3.457985635452489,33.09286337832958,17.004926339137914
3.4888984529473195,33.388698512954655,5.190424132891876
-29.32367474705557,-43.326551910163545,-8.747529275884867
-5.228537789819324,-3.636076406235506,-6.771837168698952
39.74303924423686,-14.487189240070702,-5.481057983904841
-35.28802604150674,-6.801546488205929,-1.1028955577798498
45.383593161084704,-29.910485570446674,6.365539352566364
-30.817500322309957,-10.397584047963901,-3.0019777609732214
21.640584076424467,12.089987744155874,-9.041515041339283
14.890582002585179,37.929760502705584,7.845667667419669
-41.560105943380705,36.28283173232535,3.7293464674469194
44.62401187804969,6.908356117880841,-9.270395939596806
38.076916010399835,10.797290050409398,-10.172306612739131
34.49454236674245,25.923007863950204,-3.4492215620277897
32.08678844172697,44.9896127131718,3.054725731883847
0.1572307977737342,-24.83447338486611,-7.700326398392281
46.44575887454436,-17.579119487088374,-3.356989057663058
-5.735393852618689,29.756574917256984,1.3024135081476518
-22.430157462946543,32.25370229445559,1.6884423966134703
12.168082288263873,-23.797469023695882,-5.146230395219981
42.83398506102684,28.254127375175944,-3.468662229026684
14.637245499334583,26.9973393259517,-2.8345231913396525
-0.9844498154797318,17.745746532553834,-4.1057803862508635
-23.733496934147706,-47.90313855358158,-7.595122209966035
36.61144899268035,-35.274015692444124,9.143175295628442
3.6006021881067696,-34.32807957195228,-3.185850042122791
-42.75915517090599,-20.555841550460535,-4.3790193605148575
3.4621184328743224,12.825835081606284,-5.791518403524205
22.378659349165464,-5.455228397850005,-9.706991895730686
-19.253670345778623,-14.102973773724102,-5.822790526899434
-32.49925162184735,-4.217451329771096,-0.6033231482771108
-0.5656962255300112,13.102888177075874,-4.966819752716385
-28.747969536836642,26.368408145601457,-1.6765448495431943
1.820667342462275,33.05269661999591,37.90261588707194
33.45901345857373,-34.70051474793291,0.8874294413302208
-15.62591971524014,-25.025154810372644,-6.815544504840198
6.580020913700933,-36.54645361379344,-1.5959445921203654
39.40091920388518,-33.554761252763406,7.352558209489118
-13.781247781564698,35.063792074294646,3.0115977442045265
25.647186738848735,42.21891824985709,10.141466857918896
16.123106529287988,38.27981006776608,14.005134610795627
40.6267828010124,-32.91331234746739,14.124662647624985
-12.99218747505246,22.59958877266206,-3.0529123166775127
27.096894453936436,-41.07959013662181,11.36844433716633
9.05092721869466,35.24367532927739,21.5073393374281
2.649629884475592,33.22827178986379,-2.2532890347770413
-27.4010259452181,-15.308185152723413,-5.2480175758069345
5.6412779111207145,-20.86642236701828,-7.88410660969541
6.971254160472837,0.6448161342317102,-7.8203287626835145
-11.772105204976485,-25.303268125824587,-7.172772409915247
29.641351427853696,-39.442369419541386,5.165304768153334
3.077002266318632,-26.229347938507814,-6.443213893183232
-17.429632442262925,27.889594027094674,-2.223158634035769
13.965074657302418,36.897097757056585,35.31824432421394
-16.044473262645198,-19.315108391635746,-8.124591941191623
-48.96200562294632,-17.191466426138053,-2.86858840327645
-17.162768707186824,4.183754789612473,-3.401309755154487
-23.207562025276967,9.11089605727455,-1.6853420971935906
-5.31299434190397,29.509192115550476,18.730190734470742
1.6411058507843876,24.34810013519554,-3.4669996114989643
-42.443378581158505,28.72593764813489,8.569218650862801
-4.175649797600871,26.972298906888966,-2.181758451361914
48.07696010883561,3.852551313986402,-8.67406588541398
-32.05044647659993,10.799639515017759,-0.6226403945805911
24.595428683396484,41.630448775648155,16.96709581457108
11.265537962001318,36.35851658776102,12.316061252249192
-5.355524420466845,29.745410748253104,8.16470324327267
6.355539230141028,-24.70799329628712,-6.224389910549827
23.605252314117315,28.417137764229558,-2.042158452023489
-37.23722765358197,-17.34194862302657,-4.30042256547254
-30.125826668152968,-40.11963137494083,-9.660033165331381
17.551497342945705,38.96899689227217,9.32231181474763
34.91862514131376,-36.21428552261177,3.400637992332732
5.750394654090404,32.010214256403984,0.5987365314187932
22.087543064382075,40.73887365029181,11.910546018715708
16.051915268274072,23.10126540128957,-4.349353349652474
-22.086510077257607,47.42491294939836,6.778670162902541
-4.093822310287795,-17.737049883078118,-9.303231286618129
43.684504105682784,-23.684586225017842,-1.5250101661363387
7.947718216699191,34.43458552462967,36.665484810412025
38.25921050375257,0.24222483386195756,-10.335647891115604
21.113834951173292,-9.823011205103834,-7.851799498333587
-29.845907898695625,-25.437589362372176,-7.550590524747515
0.19769815274937183,-31.226258355293112,-5.221211229297076
27.52980851701586,42.908219035400485,13.102891313705912
-0.6739069123395452,-8.451279242994463,-7.589875257049588
13.477707586157887,36.973705019153,23.91705717477414
18.305509661784868,29.316560018041685,-1.9105869651679677
-4.4226352112671,12.118016206207708,-4.526547123018695
13.096312484317814,2.5242323864017417,-8.560891614159193
-12.309499336431081,-50.49652779292194,-5.441320337411882
12.138425522592165,20.545610667742608,-5.205115262180359
-5.898966811977867,-25.55808744794257,-7.781356724913198
23.16788937528746,19.745931613867373,-6.2494997555207545
20.296488465661053,5.2207853195831095,-9.443965878316366
27.03121116194682,4.866845266243442,-9.637745896372456
-30.150786004980286,17.317612149223695,-1.067072412953416
-35.39263522056061,-22.118666283136395,-5.929428259911593
13.563414839601691,37.20882769758888,15.556712228059592
9.31778910652425,15.771375530580219,-6.427853833549508
27.863500660655234,12.97646004718798,-9.118392465996354
40.17029976754143,5.715019049966952,-9.899276357627654
40.86870967732004,-8.905968006073344,-8.053588270120406
6.493120648985915,33.75873224134312,40.351048806824245
37.23043949382689,-34.99964419477869,15.843664016079348
6.41905752360529,11.175884300917192,-6.586780693454977
0.2367031993416966,-37.38707293607603,-2.9886558569074335
2.1818190822753203,32.37033703019768,25.64123695554915
-11.16702616731952,1.5842838665467334,-5.082600989330901
44.685093749499245,-30.24314415485772,0.33108286264318976
3.938318264246317,27.75973677490817,-2.241239779219475
22.672215048329353,40.619563910157694,26.73080452538156
-9.204975059164802,-5.910962232197722,-5.9338308598995395
-2.3961333113945087,22.844693937656732,-2.976277344191842
-18.451788319046308,-1.7067245777684068,-3.0983537060675754
-12.450593692040076,29.528233882278155,-1.3772613938583276
-35.395070473208335,0.6447084770937802,-0.21722018294791612
1.5697568856377482,-16.970999388797356,-8.448276436339329
15.290144618828023,37.584955379670824,28.950977379870324
13.113787345651131,30.097128273258253,3.030196114497145
25.22812677046998,0.46937078299765417,-9.91153284786904
3.0401625187409067,33.008354169397656,13.492687239267553
-14.313231725800156,-11.033966301775608,-5.3613752196462805
43.42220113093967,-14.040479053840892,-5.344568340765278
25.62557083233729,24.708749296402964,-4.168968241199943
-7.182347602096395,31.063181704315163,13.89919781477342
-25.443963473217014,-8.933846525124665,-3.1581804147506216
18.47984163669412,19.180514783848736,-6.15288469566824
-32.42446619425269,14.603864036534004,-0.654681470555377
21.69716357910583,-15.474511905377781,-6.156486278158575
-34.15711532514688,20.749795388407414,-0.735763731361055
24.343089287415218,-36.90475055310013,1.3567793340364025
43.411780409723704,-4.536244305911121,-9.520574518166534
-2.467717146883564,30.795265049396185,13.019361018846462
44.1660298850964,-30.688767785510667,8.992380808269504
-19.671285444293652,-46.70396919033606,-7.8354029330508475
-10.283429837505222,39.97818379956406,7.423883129204289
-34.76976244225596,-36.98590561712801,-10.42161321035322
6.547229609215231,34.0400530420777,29.53234235875251
6.561584680771657,22.13415023840315,-4.445058352748081
-35.02933750970189,-25.65837159035858,-6.713480123982154
13.446393631355145,-45.2937513332832,0.86981994917679
-12.612902649014504,11.568892353381447,-3.295353110692729
-7.627753237205809,29.653892301823046,30.245741464635653
21.470763950626793,-34.355910373794174,0.24858922180361237
18.054005519376858,10.086266835097941,-9.015584451223186
-22.46238227160377,27.01983394969083,-2.375205604685272
-9.029916713718514,-17.677085284786052,-8.365160016790854
8.069584733186478,34.962589018230254,16.70216736481891
-20.060076934003245,2.345339719858044,-2.6169347818263216
8.591515127239148,35.24446206532108,13.73828955775423
-0.13003113314458026,-21.8876314088405,-8.909364715225363
12.959756663020501,-7.233617541731983,-8.52851898710518
34.390697673215804,-15.999945503815947,-4.914734348353014
11.856182077834216,36.66694853178288,9.401892468794488
15.057323468335547,30.391351698028863,0.624405313174149
13.736729234192527,-17.819248609806877,-5.489314883350549
-22.81390001371708,14.245193394691762,-1.8181173514938922
-19.477064190630582,31.165741154655382,3.39213287542323
-2.5142634496265575,-27.29844141845956,-7.405683127064941
-43.763765057402416,31.212508535313304,7.636860919995499
41.168773981093636,-32.52379363000765,10.101845822449455
22.18542638326424,40.91941234347231,6.031157507724581
12.487993816135969,37.06103123605221,3.609694187273655
6.535264729497547,6.301448613312757,-6.995673773454047
3.032088529622935,2.0000244060112826,-7.1072298656674295
18.909243755611918,39.37333642678201,15.326787249237244
33.44450408904847,-37.34379067325885,18.98503140907869
-13.985398977464488,15.235540681736223,-3.1975804015022864
0.4805770976769004,-11.131323998890604,-7.745030447992181
41.145916116593085,-22.308230756453227,-2.0115507491644777
27.69272856638889,-40.88239989080434,22.25159049162849
-1.2306369775321477,6.835148064826022,-5.771332495329686
32.75219753358228,14.76685156679983,-8.765382530367898
47.55058205081205,-7.941035071383077,-7.4537407305495
11.098776609641142,35.820309232157044,31.94883172706629
-3.151045427564047,30.042013119236476,32.91986626396657
25.475234880144388,-22.79730350013576,-3.578989086140357
44.380904165546646,22.009991470892373,-5.186262627678104
16.044189596412114,38.09244386782616,20.488584367851104
6.580051173330249,34.21069739855889,22.969901206270155
12.362845864363177,29.35212210656955,-2.1529534145213183
-7.4608497038510375,21.248807757115436,-3.1995127209975545
31.988086193416635,-21.649731953317307,-3.087611597817471
15.765274185710197,-12.454743596979576,-7.328189109517102
-5.2386452699183454,2.5954744345952383,-5.918546590823764
15.942680319770448,3.072851998408199,-9.066506323016009
-25.92931061841409,-4.014182143297302,-1.4504345819440803
18.154236475199667,-24.784537650069282,-3.5979800088152
20.30976902060253,27.047239413288573,-3.121910917013103
12.260759409660738,-1.2811683725775507,-8.79566700874593
-4.820678803168565,-12.736706492497872,-8.27659722986004
-24.498870987656854,-12.5267219741115,-4.600691257559879
41.253166859648495,12.246861957914124,-9.941051849205675
-21.00612472850674,-16.608393639889044,-6.533346793218147
31.01119317024795,26.430758956287065,-3.2571390033045327
-7.023796723932566,32.17123034734167,4.266691563414243
14.672002947755262,37.37298903472891,-2.219462471740041
-39.72759687463705,-12.326429491372124,-2.299403721365592
49.89872252883141,9.617666927096959,-9.784402108303265
9.146844123224104,35.617169023364625,7.549441064696001
-14.964400684605472,9.862429560360896,-3.2231767363122876
25.146060782378502,-4.836568071912307,-10.05862948967799
35.29160006500342,-24.522369839256815,-1.8469715216710947
-3.288882045753094,-21.299268247798988,-9.71186605508195
9.121178193436574,-44.384795038617156,-0.2780363741216637
22.889518067759475,15.504794546283328,-7.833756669452591
-9.334984996529405,34.52900970246019,28.268952534903644
9.737968956961742,36.07547988128768,-1.6059409420883903
-35.21466547872401,-15.359933792649775,-4.0220846142256
-27.236769516514236,9.92838599607476,-1.2459249753648827
33.49629774200667,-27.136633374744076,-1.3229872729973124
47.24368900262575,-21.278389184428164,-1.590145985664746
13.534316125360313,37.129000525948626,18.39515680292067
20.186247099432347,39.51686630889052,30.846238467494615
-6.160986757513132,16.88109776351759,-3.9196842065808495
39.06157893943908,17.037880615638528,-7.664172082343855
40.52238953453958,2.2479898958826356,-9.901690538327351
21.94048229065471,40.467630702973935,20.74379190110064
-8.05289100629427,-27.16476401030628,-6.912633935084931
34.947303629241006,-36.244028129772005,6.523734966878321
19.896474935778652,-0.11820197138540536,-9.862671785530816
15.323413813213417,37.66673493229539,26.101355472570674
6.163818623366473,34.31158496769011,11.754195438706102
-7.294526985137974,-0.13571510377137538,-6.062796899302189
-35.77552338472157,14.554039531001512,-0.23698851079382444
13.914520635512355,-35.4028797762239,-0.23340829880985794
-8.280019908276888,35.81054234287949,2.4845801831252636
4.943431769796788,-10.614706467152857,-6.538702890465198
-25.34668763236979,19.523810692613477,-1.76862806532212
-0.20098404569288647,31.745262405432122,11.579078817588771
27.453831516864952,-8.87713971933043,-8.175727625156409
33.52512954004758,-7.737810073887965,-8.843092495889362
-39.19911838990027,-7.057621008316756,-0.7332531865973367
34.40351469073494,22.09217023237053,-5.297694225042876
-28.394571407381914,23.586507127616883,-1.5864461745247387
3.8797394484124714,33.18405054929627,20.304913804593713
10.118222827898233,35.73530174654422,18.981294570002852
17.418028899766043,-22.03014304251908,-4.695724867889185
-9.872612311200836,11.023657775462379,-3.8034278312536443
-29.804629628497207,4.977428224045004,-0.9273489258492863
39.34104958567069,21.97874168521855,-5.2776323637565214
-31.41335984349365,-16.551609781406523,-5.0445193298473106
50.71005662271911,6.580680633042161,-9.196367288074171
-31.537655002475866,-20.80284895941333,-6.317027251982875
17.268075768453965,38.33972554067376,30.787566769307432
37.25784135187501,-35.0254041722326,18.65159858144517
-3.634490907715305,-53.92275490286866,-2.987586931175916
30.726030143526298,1.3265471736318581,-9.951082859086236
44.7443857814351,0.8324719302411389,-9.187564702025833
-5.596701792119437,-31.1546657702021,-5.6926680063671915
27.272890229896777,-13.931704426991224,-5.89661799613725
-20.670592306619454,-21.988087418556294,-7.362859234163534
-13.750286713369176,-3.717416782970557,-4.416470546465311
27.591090877472286,-40.732353548050355,8.225940200310284
24.48082728027151,41.43647338681371,23.12521361860241
39.67729672503869,27.592739745714603,-2.6715778274850686
-5.390361832773818,-9.94213204223906,-7.657473137943429
18.63018373961236,-15.475527179429093,-6.542670168775055
28.521888129416936,22.550696595807068,-5.165655437113418
-15.042988902182847,38.27405496240007,4.816196115331479
-18.426879845651264,-50.55088304009629,-6.301257905053357
19.04673853291359,15.44280866391384,-7.60284473762737
-16.49069111695046,30.387574813842974,-1.4859090893721256
23.536929258120715,-17.673877521557085,-5.293504001230438
-3.9480766003248218,30.423477314496434,3.592879088394019
19.499092366181337,39.35651479754482,25.96090238833912
6.098066534006118,33.9455686166673,25.908279409439864
24.237516630473298,33.98397095160843,-0.768457942029781
43.053752651714895,15.713053953263127,-8.242516124276122
2.6612760011971095,-28.771661269947632,-5.563382324782714
-2.570382038410453,1.7396502501815947,-6.4594756564026445
38.70104136190934,-29.060607587589516,-0.2969652615684189
47.46537756840465,15.368296342148218,-8.341955113935521
6.9213750710871595,-2.0518153237039196,-8.265846987916966
27.211937896740693,15.643762471537013,-8.06732306339715
0.9458615107450153,-50.838942185505395,-2.185328806906417
0.5763198518124094,31.640473942522757,29.037677499797766
-15.33364531186342,-1.4183074761120622,-3.957845738869365
-15.936428254891489,-47.295063886281476,-7.090441028184666
-30.78497981539228,20.289131609445608,-1.1314987055711612
18.79284659714458,-34.62978160744362,0.2417609647378171
37.51763603457195,14.745690861828939,-8.79275990317586
48.30661194031801,-11.775665250946776,-5.823025770799783
-10.9786031938795,-3.4063721148334576,-5.179967739704317
-1.898349957313123,28.0017924981489,-1.2062204587509378
30.092477036671802,-25.627470192883724,-2.1849918455977457
-0.1766914421583804,-5.794317245301482,-7.334940783847224
11.158992634296608,36.01465106817673,24.85961486575586
15.913973199545822,-3.879336879223005,-9.68166856519594
0.9786666370007185,32.09382923645738,16.91000304070556
-9.358277139575872,8.169969422654413,-4.35914916712178
14.119953048486925,-21.988605330603733,-5.364834254679003
-21.92799745123319,35.08754121854907,2.7969274178505956
-9.40389402169957,-8.632264032015573,-6.327569162963963
-33.20139864104348,-9.41476276883092,-2.332831197683281
-6.2173972300599845,-23.03309752560386,-8.701839161727875
12.644910536332894,-49.15875009978197,0.9344655899994749
-18.838192233368837,7.934474587520765,-2.9040628422573396
4.261522226498728,-40.62927989437571,-1.7557398018817425
-43.20321937869714,3.979138359034779,0.7987311268229244
-38.85190498440682,28.435042498617406,0.8863576865555491
5.37986068665357,-51.29149961289342,-0.9494487270210826
-43.29972498693532,-1.337293521178269,0.7975214818685797
31.20753425932352,-11.811648403116635,-6.8504206034258885
2.1757367628666318,18.60943490689086,-4.571180700524134
-14.23865315110287,1.1353934126466754,-4.237425456920507
23.613043775844098,7.3265070650534945,-9.363057406842117
3.7948435575960713,22.72336267670447,-4.143254848266973
33.21878540647525,11.207758890978534,-9.933993735180564
13.273141674526354,-14.108103142815104,-6.531233221255145
49.484092207523396,-14.01110517949953,-4.746917138028961
-27.548922757168697,17.675321544555363,-1.4067368836989833
39.334660371961576,-33.49833365333155,0.9511593870053023
-5.592530529496966,-39.41966214713314,-4.662807454742535
4.4433864345183816,15.693047851862616,-5.499314940676151
32.859470443928394,17.313561335726146,-7.625147021835486
15.581916107357182,12.633582838723678,-8.16528213502737
12.245333361963008,36.340879800660055,29.550653861753187
-3.5213246089306027,30.016893189543826,27.731962445548177
-2.953638244332362,-2.276938254052968,-7.081392742743546
-32.61372518240582,-39.261970564020444,-9.827454267800556
38.39793463405944,25.328022469744667,-3.6770060665894087
-7.941886736207925,30.875127527730275,27.843037172285324
-13.377487140969146,34.03649909081279,-1.1223373822938425
-15.171265475088735,-16.95338886919715,-7.361227296324029
-13.813320157895156,6.633916798635273,-3.9384740485914844
-27.18612741011635,-20.43065790379271,-6.9816652260453544
-10.938598454956855,20.760405422018312,-3.333812969023409
10.480983597073113,7.099559581574493,-7.693590742270748
28.92698988180089,29.29560591985754,-1.7694178459050505
-2.947413518311763,-43.729001057051605,-3.5034793569181883
-26.623496864240774,-42.637946614514334,-9.040275754350715
-11.057158399229468,38.9933483045761,-0.24869670869811658
8.997300606117726,33.33158469044529,-0.21184276896028373
-29.359404649092372,11.5260053498942,-0.9679640080821897
-10.178514773465835,-0.8156349814167871,-5.377676115575103
-17.96808783094379,19.098390013015653,-2.745213584291492
23.213315879224496,22.939131118506793,-5.0458298714653225
1.4829303872767403,26.921363972477995,-2.4885986438353216
-15.349523503790993,37.688767443725126,1.7489685292073882
22.11626657980238,-31.802339297356703,-0.713133490925051
-7.447078463786901,32.208125295882894,11.146280077412777
-32.4804375165104,-1.4022909039855551,-0.598516967900518
-6.917267724828943,29.916728643297485,16.655744940737513
-0.20241042835689396,31.970558357672374,2.1611838518341204
-26.897259388385326,13.739822385392905,-1.2980784674427848
33.93255806466632,-36.965757620690155,13.555358452562006
10.915711966027224,-5.242325824114275,-8.866206138231636
34.55957853599569,-1.9036720886392617,-10.26793505500665
-1.3387704813568841,-12.812010605326519,-8.49345633497385
-18.874463905965637,-4.364104162486207,-2.995222987928024
41.887107543878,21.417646175051466,-5.509626080917096
-8.931768658665037,15.98750095527985,-3.994512982363573
37.695983799418634,6.310422482306266,-10.32499048888312
-29.954294278337997,0.5456066957466277,-0.9194271585251197
1.4788560297961506,-0.2283544668325812,-7.288798515624599
15.827689365414892,28.35690462348397,-0.9966351995257451
-0.9149906889659922,-16.6108925816253,-9.023841838953455
-12.226531932025383,-13.005822424403998,-6.26372001039335
-5.9767581194354324,29.083653284772048,25.295919934074764
10.179330467662364,-49.53389648309437,0.31029150776284564
29.209777671233436,-39.877790257487305,16.66697706926929
10.041944970352404,-10.161973417141082,-7.301473757672737
7.626586629667889,-42.359241429213945,-0.7923660030022444
-25.571700684971017,40.91792256943466,2.073739407806882
26.539523979679355,-16.57150471713645,-5.231489148658025
-22.213417196367317,-7.494633564569509,-3.037649545242677
-4.920531647335989,29.393322203478746,30.170324724211355
-7.392256463109497,33.858893531327666,-1.0635805505569809
29.179346399340627,-39.836244858153265,12.691486759661636
3.4822265378900044,33.32484839998718,7.740348777506378
4.002827094747261,5.760706403303355,-6.597125502687894
12.515010598938975,37.1412098336798,0.7215380778837812
50.1990408104995,-5.869060457693058,-7.814276447842841
20.83037116070083,-3.478710476357398,-10.147506214268647
29.847378645151256,-20.20088802029305,-3.77313940498352
20.704945561176878,-29.772914044687294,-1.5585761251482761
31.781518526435388,-38.229754211728796,10.843878882189486
-18.70024126340567,-20.387805103872328,-8.207107845555132
19.807118540298582,39.978227667662914,5.22513160028378
-11.278697615737832,39.77461194578752,3.8159266918423445
