4.677388812109087,40.24184215858739,-2.2395257345890385
50.83845737142714,-6.542299667526625,0.3145171728931483
11.429781021107061,-44.310846232976,-1.9667216875107485
0.03372883776612551,-4.814398316942331,-2.386511074435183
-31.80524540368025,-25.1815568051552,-1.7434857985025254
-41.359845683523474,-11.211662945980816,3.425485052220497
30.731031408182673,-7.469318707471835,-1.748255157116887
-0.624974898757469,-35.63185632199535,-1.9700146446342939
-8.812431283267523,22.37721741984004,8.109029271073013
7.206957960520783,21.436107718461916,-2.3675997728829223
-4.654538731936276,39.44677719278811,1.7071006579227295
27.84630855055444,7.182828495434084,11.705653601687983
21.85121787892677,32.33275865876348,-2.157235122163138
-28.775391620028447,20.493461264129614,-2.388036562954794
30.43402655558836,-38.43931059196655,-2.1071490337743644
6.604075507174197,5.777899102901637,-2.3704594284678517
42.382331969857816,-16.008484193777996,0.8340562940524864
43.442678994219875,26.453975281724563,-0.9363863680854247
23.93149265291285,39.454603755193354,5.4042339977511435
13.613911665140117,17.25647575079695,-2.30111085820261
-6.981020125730406,-3.3618238664810973,-2.402443397492373
28.511888981924727,-14.540370928738456,-2.163500585903036
-33.59656761338015,-22.790566408980077,4.754493959863736
36.13114779956289,36.64097665417986,19.488019483251346
25.775884766360676,39.167589651643254,28.496168998525782
-12.08692998205344,-32.00004902368713,-1.8909286756179147
-38.032105878411045,6.805699269490891,-2.1357922498582744
-29.776081916547387,-28.749555154300324,11.72810760627275
16.99419902938995,39.07493213536891,34.53415725746302
14.822960799319485,39.243668405352295,20.79412580139848
29.79020236438506,4.258751631236681,-2.034226682828205
-6.834011016011677,25.210679484711854,0.16027557375024917
21.940064914602374,-35.05420729169952,-2.286036074070193
32.72082677542345,1.0326652376885295,5.473726028394038
0.5190200901557621,-26.920204243245546,-2.152309847201889
-18.72007205130008,29.909541688050048,-2.385180573910219
30.02304518151253,33.59534516457,-1.9364059572063042
36.320181041008,-19.660150013852675,-1.2674610067527023
37.21914831678395,36.82919615282115,6.7845107574635675
25.521373532082677,-2.9663996632705545,-2.05382660579438
41.884086416400734,0.2934326291095849,-0.7710986236370039
10.602905059025149,39.38532909367179,8.896623741391352
29.68861399636409,21.221783872342638,-2.0173447210536395
12.284341518145645,-26.330928855523577,-2.3225993176509974
27.36449235883894,11.957825177338256,6.130863758184993
12.454438963881064,30.673731102024064,-2.237877186596959
22.759081832061884,-26.013381718177083,-2.336453280112777
-2.585433416818844,16.6262162830555,-2.3904865067502996
42.564985528598015,-28.76639084882622,-0.9457867443556562
20.572621277699362,25.429017726640673,-2.211046237268725
-9.523734610382052,8.099560534203254,-2.4071860149566855
-15.319951430930889,35.05843977916465,9.334417097921198
-37.16961185276992,-2.087148119742992,-2.057954822965036
0.4185732796175011,-13.262830271929896,-2.3864272308367456
-29.439067913003164,-19.447095277258583,-1.9503942871952482
10.494578689104683,43.177863998212125,-0.2726528146211511
-29.897577369405276,-31.073088529187213,-1.8532404702499898
-28.940522558814,-8.612846596055732,-2.041113220907323
-11.273030474745239,-13.255206877317825,-2.254638858548161
10.276399882063533,44.66139800357899,12.380208638980347
-22.20041616783374,-18.947228762063364,-1.9729490539363226
4.717184670052415,-0.8441220784793052,-2.375407244871857
-37.86399627493313,13.773305883173704,-2.227281619684803
10.963264965090335,-14.567833273202593,-2.362394530403744
-19.01611425336553,-9.44672405383625,-2.222928872457571
16.898352587732607,-3.8882398738554342,-2.2467729060412247
-49.74258094254551,0.8724738954818732,12.13786116812495
-44.96641879862446,-5.866174574767101,3.624921186767603
-45.172956656296606,-5.893118840327344,11.708643258714952
-39.71953074763232,-13.43091336819813,-1.802014754891371
-50.865219370053765,2.76742952987728,6.600470816222781
45.16326234752004,-10.391876757294224,-0.28436315239478444
-25.610312781441817,4.259211807826144,-2.396289132238492
9.849863523396547,40.52531123099803,31.329131781378326
15.190972555750198,3.9184422002903903,-2.228834164739192
-18.174436218338506,-29.15040084824609,-1.8989587082370005
-28.111623537886967,-1.5785239416120307,-2.250687850551107
-18.548154830172006,24.027076410225018,-2.426355290170741
10.354607549314837,38.46300836377375,3.1840679456705487
-33.31173260810614,-13.593094786477895,-1.9888672879579385
-5.931703048059739,3.4016537112914507,-2.399400949512887
-25.984998557348323,15.328396435149632,-2.411622666940968
-17.963575856391223,-3.0196173743954824,-2.3602373592669847
17.377315985719928,-23.690326532527937,-2.3485625451732766
18.354851006457842,39.52208661729126,-0.8022335122311234
-10.816592056666474,26.507534007713737,4.067411808309359
15.419758763036734,39.35573107851874,11.977021525744712
-13.901912382599082,32.90819626426804,-2.4148729913511513
1.765202333719983,8.636329631384688,-2.3812744732316884
26.625547911599543,39.39722808829428,10.371786870060673
9.00876720852531,-5.464336876891009,-2.4340453985476835
5.355714268535552,-15.838569703556233,-2.37536037898913
5.265794748619863,-24.041178330876875,-2.271596377985233
-0.792201046028738,41.08938047929197,-2.271823082673948
-4.959409348008597,-22.832328728032067,-2.1565564872163216
10.165252811450621,44.17835105965466,17.807084613898255
6.598567409731761,-36.508212659129526,-2.0508555603364593
27.474044116619538,12.005697461984798,-1.6574268319169183
-35.61230024302957,-39.849639219994835,6.2589849809001
28.139838756724938,39.51186526829027,1.488677679139271
45.484890555494985,-19.781973779307837,3.352881085640709
17.362520821836828,13.403325437815857,-2.2962993079766947
-38.84172484139182,-15.296362575664583,11.828675434299939
33.859024117561454,36.964591654058076,11.58015614606654
46.079508064262114,-4.212703568359533,-0.28392300691643896
35.48229167439557,34.259044032489356,-1.5136597442581352
30.832336442951004,16.272055307787532,6.712525399915277
-4.404934530322016,-15.597379914543172,-2.3026045758687492
18.25417976746541,39.3053189940657,16.412284178804686
32.94452633972289,-31.69821771064348,-1.9648555189048091
-8.938198241076492,21.158238799897298,-2.404611562922471
2.566232716799933,18.176584265995817,-2.378538600072269
-11.510035904347149,-40.75574826239494,-1.8201084648640653
25.194587937700014,39.326872189016854,15.747798764629971
23.722226316157343,-16.459669975552806,-2.3080300612752933
34.027027384113886,37.14800426876004,2.7847999681945566
32.49606420131839,25.72850723971405,-1.7813547961390386
-3.5055945917870863,29.709583860943017,-2.3913589965450157
9.751092590665992,13.342174494656684,-2.3478116402367664
22.776496869128668,5.577912372830907,-2.1643856389184846
3.8948912993483407,33.50963693406461,-2.2804287252657955
29.800930756050064,3.5163731063217396,8.902030915134917
-14.639502309466515,-20.030862440461288,-1.9832505179359345
-30.950690921340435,15.784100688043837,-2.348558455207041
-5.714569373094605,-34.36126580680595,-1.9255631981574124
25.684234871494034,9.393452268383534,2.1861119766681196
18.530164227930452,-12.194556317836515,-2.322326528464774
-16.116074611325686,5.418328445532469,-2.415561424307644
-13.8778326738751,18.440670113344275,-2.4161839601187065
-19.69086216119049,13.307535055981607,-2.4880736488464916
-31.70798797928697,-25.7438322998733,8.385001381271795
-1.2684522384921422,-42.53887401163856,-1.8290438365580983
14.233964858962707,39.130387211955615,29.709262751873244
-43.042574539715275,-8.875617772289194,7.3482377733567965
-38.34138524212988,-15.64548112740049,2.289161232775659
-23.613999776646047,19.588522998439714,-2.4525449225213602
10.46962032145812,-30.9620347383703,-2.2093849079536834
0.8606061849279949,49.065964076542336,-2.109076162886114
10.032130964364962,39.1740931736811,20.666872712395914
34.27212658750642,18.628696608599874,-1.6764722977127613
-32.584455662732104,-42.36168898367978,2.954357445385905
9.976186118701614,43.35666419353515,27.038470442411263
-2.891057374359867,-0.899157796948268,-2.3928415099627887
-29.19935937055136,7.477691850636963,-2.4094205975911267
-45.57509983163404,12.269250192657438,-2.028458369578866
2.9731987172060617,25.57986908725055,-2.376907243667138
25.129543083806688,39.22534202460451,23.808074410273615
-29.707887952618165,30.768632783956466,-2.364301219273657
17.316281575023723,-35.958252121218,-2.206234058031651
-34.188756909780196,-41.2146080690035,10.993590556922921
-40.233181723836296,-13.056657791208714,7.607175908213794
36.632077622640566,-8.428887025231022,-1.1535871443244552
-10.082492663320865,-27.717634958823314,-1.9937625386951938
23.61919146589908,15.189546754374598,-2.244765451332356
-20.690128931456876,-37.127290458953496,-1.8266955687084263
29.64816436796659,-27.15728396978519,-2.222574504719046
52.29257847957663,-1.5592946397875431,0.3210098880668769
24.812101406376357,21.176204890036505,-2.2050492939321784
-21.24392028474696,-13.662005360228283,-2.0190199302507486
37.44962938644184,-16.836798418758534,2.269796293916907
17.898433436506362,35.09663884044496,-2.177850058631599
-47.487731814363734,-2.0823048456055133,2.6276212220118174
-35.49572404534373,-39.719192172550066,-1.634777986180674
-36.240567265600916,-19.126299948840693,11.069893513226333
29.435965580235504,-0.5163003420896678,-1.9901136065656513
27.881079713244514,16.97789847767208,-2.20663568448038
16.69986787185805,28.309943860993503,-2.2218396727517797
-9.012556220834561,-7.502691113732231,-2.4074882803746815
-51.51719523806655,4.073017812188864,-1.5859573763690775
-11.479833862792862,-2.514454492943245,-2.412669328581426
-18.747762319966263,-22.04424698351158,-1.9561690195395494
-5.976422145876322,25.768414333629817,9.282124831810494
21.17464752487047,39.1180652762536,31.737376407425987
-12.997519199486847,30.767343441229364,4.327724280017518
10.377788380464388,26.48714905127988,-2.274007040142051
1.2527918804106488,29.75291083161885,-2.380454326430789
32.6044638779092,39.3047399639032,18.62657427820655
4.509086417854426,-5.4165091204586275,-2.376315717911921
17.375602145583496,7.848177438059817,-2.2328667298861458
40.08760605084718,-11.321342501035982,-0.7668732880883243
-42.20168750994076,-9.787761736607955,-0.7975487157185404
30.60454983573553,-18.563424539353107,-1.978697118844027
-35.7891435119347,-19.453274796449687,2.7535583838208244
-31.47522258503114,-4.49963897149598,-2.1492884421280087
0.23250453069077842,13.255841231795888,-2.3843493905041613
31.58277526965655,2.162524728243155,1.3605393585781116
24.673665589511387,-12.203784273508749,-2.200395377803883
14.25396755019018,39.18537632150927,25.34148733076852
10.96111673563748,4.950895418748729,-2.3157647727834383
26.81717373387264,11.328788627714452,10.618344641484041
37.39540516025397,-3.8820705242546385,-1.1538041126237317
14.180600284943756,-17.465865149233533,-2.3552978668836495
-50.30451047925873,2.1181484606028547,2.163897636886337
-23.380941886944044,37.35633357377287,-2.436167659819414
-26.570677327906292,-22.677083973959373,-1.9310290357468478
18.212997975489476,39.21664541404288,23.454262539393095
20.100796519448078,39.41520347861487,7.957154990753895
-37.71221434412071,2.516314451059186,-2.0893483928416385
-1.0733681481889101,-9.234706228750866,-2.389464626020326
9.249966979960387,17.600970239224342,-2.328635619996533
10.221133843160903,47.056468120336085,-2.0695463871649995
-15.248400160620394,-11.475436883405264,-2.234996948853245
-24.714061393969413,-10.084752511651459,-2.133704296391742
38.19786823511672,-27.916809967959182,-1.4519695828686263
14.364115955342633,39.488183711235315,1.2895489576963663
-45.76385436204428,3.0535530747833883,-1.9712075106637421
37.36543794459446,-23.29627548621436,0.8106382235773133
27.25724998152155,39.28405938746735,19.462424574616875
-34.05631448030793,-21.901680327507833,-0.24845240930229645
-15.479365069519673,0.46157393041238487,-2.3943704243851607
-11.7924788452195,12.213539103817602,-2.4119948139497467
-21.843179364406538,6.168842174869198,-2.376222520079985
-7.4719350591554905,12.270400678297912,-2.402091882000447
7.25865615210593,9.931836466286292,-2.3685676603795285
27.019890327140082,8.04125668280416,7.61560688933874
-22.276557505606267,-1.2508733019956984,-2.33582158142097
27.550145739877344,7.8323488043388165,-1.2309668857053677
15.61616613832216,-44.379678131589955,-2.0219811128892857
26.189611842452976,2.1164354307864386,-2.100333644565843
-7.115125461438112,25.027325559293672,5.3416876220650815
-46.626858837613476,-3.1926179499974765,-1.434293564966889
13.548913099816266,-21.647447727562483,-2.357139800777097
-2.8059988351087966,6.212387495646936,-2.391975131916758
-3.9943564556296427,-6.234892437866225,-2.395872802621811
17.697288471043816,21.874930577343182,-2.249198962786279
-53.17378980710303,6.180494634441312,6.936234449099447
-3.566418965950943,27.337933228943246,1.524033166778602
3.5435294372293082,-19.60545649157991,-2.3332678411764967
-34.744161585032515,23.480899134766776,-2.3181234379773086
-13.330512586016509,22.508580083632097,-2.414546029370952
-1.6529128969128994,-30.380458180914864,-2.056690507144582
20.13266087764763,39.4776855877659,2.995592328287105
37.684977425630684,24.894244229582927,-1.3860810054790307
-5.10991861107482,19.810074875470164,-2.3959689895538925
8.036915960102464,-27.005304814456327,-2.2522819785518866
9.823058211278635,-10.173798669239414,-2.3645916148504034
13.039439109333463,-5.10891298322176,-2.3415981758399482
34.38875513263206,36.630101444286254,15.578309567197289
8.672429474792713,32.214424915144384,-2.2551555824377867
-31.597753979217295,-25.65433290895037,2.2499256750029004
33.224303341965054,-22.45374416896718,-1.7234215762670817
-27.483167129689445,11.553834624796018,-2.3831510334520316
27.56484609642212,36.76070688043247,-1.9747256524768635
20.598017220481385,-20.816111619151947,-2.34091311270131
31.359948355812772,29.543877844510547,-1.8516875383307485
8.52062816606132,39.22761151687527,-2.2190484405538
15.795240934019674,-0.08318063592985561,-2.2440716754403938
-35.32088383468075,-20.337198803679495,7.329973226849051
-4.159290318367699,39.39838391519864,5.628459989212327
-45.419664358461006,-5.359312014636631,7.646963217007371
14.818587100143654,-13.573608568643994,-2.353468822010984
-10.314218951031975,-23.715586997887375,-2.067272971449825
-3.6677316798166415,25.655985232525868,-2.3921131932598465
3.7599976126684695,2.976948999101358,-2.3772391686730194
7.397934953796552,-44.01000168101686,-1.9179940176295973
17.539695030597798,-7.885586970951172,-2.2521874280235012
-4.660335249675078,39.49590213446443,-2.1984607690104547
-47.34800360293327,-2.658685193832129,11.569972509899273
11.009817959494491,22.259699159354277,-2.2921367552561844
13.135964019760868,39.07112283101015,34.253976346509496
14.294797045166412,39.29762009644612,16.425983782507416
40.20619237405594,36.95711320844146,4.365421857522359
7.705127443439126,2.088675390925852,-2.36828548696837
50.010574070141715,-10.862795096245732,0.31402043189750833
24.91737827904657,30.03794442096924,-2.157426942451728
0.9148102916484883,-1.0718807190356707,-2.384139284397762
14.333050382809029,39.402781794464694,8.07300837381997
31.088467254777044,39.40655665375096,10.304635673753868
-15.060716360058368,14.139171517606071,-2.4192999060909
27.925928979740338,12.613528090672045,2.4494521617223843
-8.102256676756534,0.2415984404208219,-2.4046716801958596
33.09283205329092,-10.675844085803355,-1.4944379661743536
20.44971715868944,-2.63163330843907,-2.1585491049913643
22.470804873313075,39.18392437094446,26.698423979196033
33.90448500235092,-5.211873832514974,-1.4742593823806458
33.24641699421998,-15.939165880294222,-1.5845858409443616
-12.046911139117906,-16.915375171228984,-2.1740852262662225
40.141957977576276,36.89806962031731,9.116511734065623
-3.3740498474847316,-26.218837115003616,-2.1131279900779334
-32.73070774150586,6.2724959054546865,-2.252786918487278
38.03350360376425,0.733283904200619,-1.1674364273554627
28.639126085540987,-10.817455669736619,-2.0694400138776605
-28.863586164619907,2.281993420427464,-2.314457047551607
10.060347181454198,43.72242951632663,22.92921549797651
-12.3341198609099,5.728213050465455,-2.4457647602614587
17.3043019578717,17.54847445125799,-2.2747462880114044
-9.313213816108496,23.648843746018393,2.3459429613924128
25.10548756191053,-6.758635949096184,-2.078297606112342
-29.591319882974812,-28.571162769113357,0.7572598920524599
27.367751182709682,39.44331741066499,6.820530542099912
2.514259699557145,-8.448309016332981,-2.381171780087606
-8.28702449971244,-15.309457451176494,-2.2556533425646665
-27.27866791077446,23.782430276837033,-2.4463783740029936
-18.86615270870911,8.20513655506672,-2.409399963156118
28.964476850648783,-4.089304515710502,-1.9773531916526572
34.307396447265184,36.54344006655192,22.587460464889688
2.9248173304617016,-36.19285024273467,-2.007245466659868
-10.431346768758054,25.5634378897271,7.8233656015316075
39.401202576361584,-14.882463973622764,-0.7753896370172211
-9.700960259579944,24.633439959075396,-2.1163057662549263
33.45952187395719,22.10295895703121,-1.7234512847043235
14.197211516247226,-30.431078933204045,-2.269930257514255
-25.272883424252264,0.7536035284778063,-2.333714423309158
2.1189670402723175,-30.946633332187826,-2.0968235465442673
-5.992553825584836,15.782128186633583,-2.398371291295519
-31.493120261334955,-16.62079017772287,-1.9684997427487665
-6.00903855009239,7.784042656372341,-2.3991642931704864
1.5568949419130942,-16.709024270259825,-2.384144962658674
24.63082243538528,39.50594882767113,1.4287474851010735
-27.09394755114049,-4.89701429596636,-2.2008898939207464
6.367985768441697,24.866109574098967,-2.3691978160534224
33.910541942237074,37.94539675704171,7.8682196107988664
10.477058382541362,45.53346305121143,2.582840256697938
7.8094554557512765,-13.186271150572653,-2.36948886439953
-11.177916856413534,27.39300970717146,0.5446711161042829
-38.05397103137057,10.244490810395313,-2.178499843285181
-0.9994417930773439,-23.73602752045008,-2.1927676445451785
-51.422968975343636,3.4311525376975935,10.580555574784846
11.635125259367415,39.346083630015364,12.172005137196537
28.94518389123169,4.501074953814081,1.2589540219072353
-38.124467590368056,-37.72503022253099,7.619880863189312
-8.64629376430064,-10.959712560789944,-2.3340987240208464
9.396259436787957,-23.859719706349367,-2.36686165746814
-49.13474729185997,0.2587525915598344,5.144021070174676
8.069219796203596,-2.1723106894973183,-2.3678537729145255
-8.949933527071488,-33.245235656444386,-1.903211115808077
31.651608187591908,-35.2939208783626,-2.0374809111058676
3.8827804644088473,-27.160263332292974,-2.1931726464531427
5.831712152685572,17.345627735422234,-2.3711364587778916
-15.187631973071435,-30.70642220492111,-1.8937155231992477
-21.136737611741555,21.891442396166752,-2.4324869144970265
21.907741940164605,39.31222956642132,16.41503627649189
-43.87215524419562,-7.374763426092317,0.819011355598421
-37.707701160605964,-5.390622455787754,-2.1056557633414723
-35.55373179947991,-39.78410199467653,2.293120422701896
14.056102775503035,13.908834287585508,-2.315859545727716
32.61265228284186,1.0292512641095517,8.814451540671083
3.9958582035527312,22.329946748293953,-2.3748714026106366
-15.369334045779757,35.17144780250089,-0.23551749300925368
13.260319152492185,39.441000112822344,4.873148362994618
3.77271599633731,-12.676920595567037,-2.378688187453257
23.243670185749135,39.40312600861275,9.392004789089858
44.57367942755543,-13.778021105297126,-0.2862723082399214
36.365249439859504,36.878381587574125,0.31779780123033846
30.300140195358182,3.19878805260131,4.71082066245851
18.232330690127075,39.25827305908264,20.148419068352712
33.47847526288413,39.36511273883741,13.95991638178098
28.936849940299833,13.935011072597913,8.254743457476929
-11.659138190090607,-9.466097266178242,-2.3219849528397454
-31.693506931123245,-43.3654276062798,11.027130867599777
31.163250946972923,39.501349612797235,2.781336868007538
10.328561865162477,42.49482068051957,7.864937533158285
9.991943192376178,8.112495503102489,-2.3146935940007984
-22.98164101298752,13.17928153348271,-2.445242052419117
-37.97815722434073,-37.580252778303944,-1.6396835466889101
-21.33154482134487,27.63264928848127,-2.3597339407427573
-21.429811403906314,16.069045003551334,-2.472270888209158
-3.8449179127759487,-18.81142907304599,-2.248621629705546
9.770174861176024,38.1511905789892,33.55221028002563
-16.789239084671458,-6.1403003341702025,-2.316344777032503
-29.721409762341747,-28.696767815887412,8.481770323657633
13.846536169205974,20.488410060225206,-2.2824364386771867
-9.222502555157398,4.846769408069047,-2.4068031009292894
-4.14713593626053,35.14658630798854,-2.3923152464933626
-16.54051919526528,20.37251399502078,-2.4221012609682973
-33.675191674040065,-22.84390182396752,8.87584128879478
-49.2382712410151,0.2592977676645018,8.855327467699963
20.58751290797511,-14.662160080236603,-2.332871135638175
-32.15439061019085,-1.0147885825165994,-2.1746493966687575
27.918971494270487,39.20173991214583,26.105553923462217
-31.765647759423217,-25.7906464878705,11.59405771705942
11.154020390823085,39.49513719503813,0.2518211798079182
31.997830488518545,1.4030831738936052,-1.770524201464108
20.55587784092526,13.578966428607357,-2.2738934018650028
31.003707249833074,16.362497861594143,-1.9379086365247773
20.067193566916334,-5.934118194597871,-2.1907783784768466
29.343523099000606,3.828061778909419,12.04528529209975
-7.3878028760189425,-24.983066647080765,-2.0825493546386715
17.585738035285754,39.11547525417639,31.400975026203138
24.953112812503242,-34.018336952438034,-2.332183050113592
-2.6384365540538317,-12.146940593722656,-2.393324901528519
18.288211329803513,39.37859653546198,10.592976322994769
-0.18095680905721054,25.82947455839302,-2.3841092580488548
-20.500294167594916,-6.652850062982202,-2.2563753973231218
29.658310718028712,39.55256862528815,-1.5171854808264211
-27.387381057875995,-33.015537222235515,-1.8435935397845378
6.724307627015931,-19.109851003213375,-2.372534084609137
1.9321573102326688,5.521668402777515,-2.381186119783236
18.28455228938795,3.5370287067979396,-2.1810673178193376
37.1779893986864,36.788468464612095,10.070473547043791
21.856987077870425,39.221152777057526,23.64658677359623
36.78697734290442,-19.912827314960666,1.7977927972728955
10.40604993711101,42.81362999447049,4.066730993705731
-37.986128951627876,-16.047061108998985,-0.7591589005142863
28.654229855165816,24.455318493227523,-2.0824516125215915
30.778100225751455,-24.28133900253985,-2.1671225344002027
41.53287213691781,-2.7712444938522376,-0.766314080988025
21.392885340656424,39.52123803809698,-0.27575049530759593
-31.371380671070984,-26.11576263371816,5.289020834104643
19.15895675546519,10.720538250474656,-2.2984206286764555
12.120629101726955,39.211802036866295,22.918706700771683
-40.08917356325481,-13.009923598403379,1.2934706549032249
10.203823572853423,41.981609699855696,13.979192097177727
37.259746204587664,36.869368688758485,3.5433383743035076
25.611566957257786,9.366875553630829,5.25073654711702
-37.4127377313168,16.820212477299236,-2.267560316059417
-39.27675448305996,-14.364621735456893,4.897821697696274
-43.28933558450133,-8.37404275681701,4.069661040071818
-3.120408194779783,2.2223143063492694,-2.393072157557533
15.487842054028347,39.52949953575489,-1.8246404502424352
12.578910105294646,2.27353738310129,-2.2988948718727387
-15.00024079075457,-3.6735249139914714,-2.3877630436753607
27.30872047666239,39.35824038478681,13.573940663352476
10.075214184445786,-17.498253975564865,-2.3647056016734265
-12.95686659120379,9.227712591981309,-2.4594167846519017
2.2418528059112335,-24.060180257436958,-2.230364904782229
9.860645057601426,38.5044642669822,29.10207910705491
12.137741001799467,39.267161245739565,18.521077227460992
29.587637844442266,14.698389292219384,4.280734085837137
-43.454801815813155,-8.406051132023183,10.798469939670646
-1.4919423607951605,-16.319204266358103,-2.3281492362547933
33.57681672310879,39.4807459221962,4.783696231831125
-15.74390296152965,25.854614105819657,-2.419758700792006
-7.915219275873748,-21.759614991423124,-2.137152946608643
-3.745138855773248,13.815824279098374,-2.3934085543455668
21.457461102560508,-11.614944972780906,-2.2520532603659347
16.294034380087233,-19.573096997951186,-2.3506553626708895
20.15286510885629,-28.19322997240484,-2.3426294755571577
-45.59807152077815,-4.813791799704953,0.8441185160453254
25.138013613567487,-23.599852596438474,-2.3307756863421814
22.74731398272686,-0.6782944309522483,-2.100501705400573
-27.696280535666364,-11.301668723847246,-2.022081281573239
-36.159834937117154,-39.47643405456022,9.62782148505614
28.09902846803743,7.248016447415763,1.9616061884592937
-20.68001707584364,-27.579041919849537,-1.9055535957889504
36.161800289221105,-16.25780954055171,-1.216778125656413
26.14911766239466,5.392093199255145,-2.134249206921667
24.54362583647987,39.36609217516427,12.532048896935137
13.635582620590641,-2.096092485888654,-2.306683056416501
-51.54819797599353,6.633634770151028,9.347079413519829
-33.54194807610331,-41.45989860503945,0.3272269383463694
-0.7057856009462689,10.307705494472952,-2.3867772235725915
-15.335075964976145,35.09305102244465,6.403409860366926
19.962394904486892,6.478288511953191,-2.1971712389050584
-11.688665300624407,-19.81485488446578,-2.1233996491979608
27.157553685751235,5.600038304463982,9.349495372536063
0.6064287466652996,20.33722300974973,-2.3828241231529415
15.337361073001434,36.48306137194115,-2.1877340900596876
4.343048249148809,9.986014363056123,-2.3752416602184656
31.553705245980602,-2.494677804440563,-1.7497164425886513
-51.68543379854603,4.086318976011222,4.1444509295743
10.336142212102189,44.92103912402377,9.463224738418932
-24.333713012724573,-16.507016692166367,-1.9876651104510856
25.536452067649574,9.696319895529818,-2.183497510502413
10.331996416471837,40.34502656780534,5.916815247691444
-3.5663612262789015,27.33749063279456,8.92036637211226
14.329431231709767,6.6852038519780095,-2.2464449185134234
15.007186278538677,-25.339644818670294,-2.354147812584246
-4.066046143124209,22.496409911048644,-2.393324008139939
36.20727918639829,36.718182293567814,13.253737823605762
22.955434425932054,2.708635945637109,-2.133476732112979
2.3381729610914816,15.21037397291999,-2.3793411341090573
-18.290753289625457,-0.12814183823447847,-2.3700330789527344
-24.60091255741445,6.947667479750639,-2.359469717331927
17.173180064969753,39.486465024133125,1.8505959046791045
-51.60033793474233,6.640344557434599,-0.3192306227743166
-46.425598578506786,-3.751746391588284,4.876171699215784
18.27150384013557,39.34262158510245,13.449913213214339
7.388894501473171,14.938899928055807,-2.3677965045383855
30.214613221777785,39.28075587056807,20.171848741542277
45.639765601295586,-7.590279361848241,-0.28389201537775605
-14.06724258467643,3.4191080932054367,-2.4205555670116956
-21.845519966464547,-9.228536930049334,-2.188868835147576
-2.58965701440617,-3.732300214294198,-2.3924185840433307
9.433906055641001,-36.57326066316542,-2.0879285050754914
33.26035803830246,-19.62008781570399,-1.6596364828753631
24.494050539638767,39.286577203820585,18.844788961545277
-16.43238731901837,-23.682905639996942,-1.948534275971484
22.56310949942698,-4.611733831885037,-2.1256224315846435
-5.685668906514347,25.958129140460578,2.7819983711042946
-11.489370165626283,19.954307024835273,-2.410569507708088
-40.308099816879704,-13.080970556476744,10.891786694895734
2.9599684532457724,-3.0656565870744883,-2.3796424743033233
7.03705132738938,-7.469620859034883,-2.370718490240042
45.031297931793524,-17.009040976771033,3.253925051293671
26.726318599538832,39.54633622272741,-1.4648156395047118
22.639115317214163,23.529238699927053,-2.2072060844441097
-14.239009127253542,-15.16706105777242,-2.1779412390893462
-9.075232877213322,23.04454386097459,5.084666061679211
37.3576039425441,-25.247123259676837,-1.3837439251328816
28.73453427681445,39.316739819590545,17.08803862267378
-37.074292814533706,-38.53197764317488,4.274341917929643
38.06258103360781,36.75037823336357,15.695871331572583
10.862070653881199,-7.536649209532639,-2.377654281905674
-5.299830727857745,0.4845237450845021,-2.398228904490671
-20.49775015760186,10.453354763168633,-2.408864782776713
17.140986527017454,39.41244209969238,7.729428091668031
30.74114341868042,-12.923477325612843,-1.8434156810147868
29.068613557565936,13.998463987111995,-0.5939684003181444
10.272525081138093,42.26426843910239,10.611673568514327
-2.39110301923655,20.26437279330356,-2.3896977902675576
4.259841974727902,7.221367742943284,-2.3756933287228303
10.096020917045799,41.53807703894572,19.26331831122074
-16.826940617171957,-18.37031647873856,-1.9913916618484393
39.10870040669069,-30.85348366398205,-1.528751988240866
28.85032108057051,39.47516798807812,4.512904047996117
-9.952220533744114,-4.792653783006195,-2.409384974855554
-38.78159395495015,-15.272682271950885,9.091398078622626
-41.80028333344634,-10.782192752752449,8.86244724491118
11.111711366764608,-3.1381143088522796,-2.3704506863668544
-24.475499616171135,-2.88799666421896,-2.2747515019342126
-22.80374329280749,2.650524131863684,-2.403411446044054
-34.15021876787482,-41.16815026948393,8.270051911053278
-33.11809689834663,-41.979237863152406,5.597833616838533
33.73228258778624,36.82622532437637,18.215365804644794
-30.11858296613062,-27.68468772176943,-1.7581956469654303
9.992998405690226,41.11421133496246,24.313137806038398
-26.07045039132698,-7.411679882895353,-2.166564438945895
25.4558845460204,9.309938085713172,11.816332211712743
27.884402866687658,-18.844917283252457,-2.275017004118803
-34.69408021679296,-10.790326408442619,-2.008488409035793
12.101844033094878,39.15102991140417,27.746327895645052
-16.06517407790195,16.638794471073744,-2.421364899100821
30.789653107474066,16.24952877636859,9.40487986048815
33.611020175459075,39.52096348728103,1.5921795720472183
25.00135938795285,-9.443413044606688,-2.1363364714684647
0.08838018094973168,16.78258691206035,-2.38434653116665
1.2122874155548709,-21.589389015534017,-2.2637681239341356
-16.719452586212086,31.680066072129726,-2.421443421341973
10.693290210986433,10.844177969399134,-2.3546996212936375
12.087086261170192,39.10328661141874,31.53896416054857
43.82941743819044,23.82358497372522,-0.9183878230692347
-8.909189073515796,18.500442229072664,-2.4047960771366994
34.10982385365418,37.23839487412207,-1.5497850361387095
-15.287142893816053,-8.802091862336985,-2.2856698601763905
-6.283761421469982,-7.5750857180456235,-2.4012439547853406
-41.42264274459721,-11.228685724260606,6.097329677643113
16.49617595431152,10.89717603974209,-2.3153933128273674
-37.23467980225658,-17.371340202978377,4.301480793815641
25.02850660232622,12.818841711490254,-2.2478380748748945
23.742171946105195,39.14248058017527,30.18467300110136
12.244902671342986,-11.216151357664971,-2.3591420460504127
-51.57272812008612,6.636791505462031,4.7993969119612325
28.436408689622947,4.78006575255702,7.035136594331333
30.434683301080113,-21.67518731118213,-2.0654749844930866
-5.10983245671571,-13.04178587442349,-2.342019603541543
40.307487248225165,-16.366027923068955,2.404843348868013
27.233000911687235,39.249110817816785,22.23664031106418
49.448046686288166,-17.302995745557375,0.32145280195855214
1.4138264746366505,-10.837507911980014,-2.3839182738879185
10.489225997935838,40.95898648278334,-1.8171379151390192
-9.611832856229237,10.717915699992453,-2.407140587186011
25.980795572528322,39.478960626642184,3.777874051335064
9.923814426478476,40.82956756471169,27.704305448484952
-3.8282552381452306,-41.87432494493326,-1.8071755471922688
-3.205166606426228,-35.05884002790967,-1.946117889301755
-0.3100224308877968,7.070176149043051,-2.386176315203407
-8.994236587797431,-41.40802906554678,-1.8211276871242916
-13.988529336489716,-39.97605165457281,-1.820236184738093
36.14981688716429,31.62743889519487,-1.4740757600942274
-12.99441958936542,16.00487819132653,-2.4143902304640528
-16.647762555675545,2.7686638369524563,-2.3976441706837353
-6.292981779144061,-17.98391800974534,-2.231384298731374
-7.110713546040687,25.011806726408736,-2.4000612527945426
-29.942993569632733,18.162152509859116,-2.367320827956527
2.042382348955327,11.413390257762217,-2.3803772747229632
18.64522714316763,-0.7850858460728816,-2.1855446172991444
17.04110926459289,39.1827933092812,25.967922598231464
-21.569176243006442,-3.8984560745477035,-2.294678463910628
33.38971424324417,-8.115523814400705,-1.476798710310298
51.59023795236975,-4.078792666099911,0.3175455195754917
-29.123385167878258,4.843465483981976,-2.360000007986708
15.946778007131675,39.27492695198851,18.479350764874212
34.50831300170021,36.75745170327463,5.278251970072473
4.786163418717426,19.69172077209222,-2.3733100810983867
21.35518974438978,39.451599155388124,5.253785724674621
47.33665926653713,-1.4115157677410874,-0.290586850647377
-34.82352468947041,-21.205429376957728,10.47911282051068
-33.270642387599274,-23.170683843871487,2.24125279952544
5.544830102597355,-21.49613484374265,-2.3241068868339427
1.8062096907848,1.3248899921299522,-2.3818709332477024
14.768685416510973,39.099974769893954,32.207383245224676
-37.345040491923164,-17.422827501792675,9.519836849858175
25.96475218855112,-0.4554160250215628,-2.0758535718465145
3.79164917348373,29.463889560172767,-2.37466556785379
40.542540139689244,-8.806243767589569,-0.763786333630119
22.330904915990793,8.167044511455554,-2.1946550983143958
25.511708791261487,9.686924748448037,8.829690260255372
-31.79895828838192,13.368179277557045,-2.331764735336294
-51.59172921415628,4.078910567235482,0.9527597550799007
-36.87556646188759,-17.758029226224735,0.7534903988047937
-43.471652943932824,-7.857153540801261,-1.8985916975696404
-32.799111496796726,-24.058787190970662,6.801270279301883
10.113689242798495,43.95425496681217,20.32473164099625
1.717304317397649,40.784748867895054,-2.256558814429676
-6.536431779335192,21.96344138424904,-2.399033529240316
22.49535882135988,-18.66057668325045,-2.336363114231314
5.684063331537286,-3.1675891703999044,-2.373411704554094
-15.264781245422371,7.78466770809894,-2.434407454462918
-18.734276635259715,-13.741956845035467,-2.1444809744284647
33.89774507549422,-28.82869477617053,-1.9124683727258602
-18.138447283704007,11.308800004964862,-2.5033076753388146
22.64141875985378,39.481435815885334,3.0765687304979012
11.430255140342275,18.84446548836875,-2.307389578306983
1.5138495797578804,22.68818978985519,-2.3805233950221463
-2.7080613458231975,-21.043618954386886,-2.2212378052607837
-12.529883010584042,-0.24157547064027987,-2.412969128410685
-35.45835195870152,-19.840987342049196,0.24931796431935704
1.4281929824956485,33.91856151287331,-2.2948529759248784
-44.334716264213846,-6.89419979887422,5.813591537035585
-42.58587051857352,-9.327681457863497,1.8736400231730093
-0.9133207668471014,0.6337077390532718,-2.3881661385309716
-34.98995899103485,-20.72250168518518,4.762535700954148
-48.612903375962524,-0.3405735511201836,0.8949781669232033
-23.339108864274262,-12.317434034771987,-2.109528844619406
19.220200971296386,-9.801835705263844,-2.2587291230338318
7.7331517247465955,-16.575659964556998,-2.3699837132421786
-5.39207082615254,26.14900916336271,6.862164366196166
12.193321530104702,-18.96017046998912,-2.3599914564602447
19.989522698916176,39.19700912627344,25.283473939458645
15.990040524289121,-15.76755234874953,-2.350992408391015
33.50718188148941,39.39886694266163,11.281308076790383
14.804524681991222,-36.28050678254585,-2.166117084909078
30.704019109509755,-15.658304054788292,-1.9052750356485073
-50.23378314991869,2.115170378074332,-0.30850762404200044
-46.1988881695397,-4.304668791533609,10.120595154210138
-18.276369422791436,15.543331113404712,-2.5117489969950184
6.31258589999841,32.93990260022668,-2.267185367945291
-19.785694700495394,4.809004214788108,-2.384636123866358
33.195295268638574,-13.478268340951452,-1.539779463744675
10.215362711093526,44.3961294837677,15.36041454892901
-3.5055728734594145,-8.633789124575362,-2.39497961187727
27.407237929264934,7.791720931435747,4.405424998428042
8.810026844318074,23.32447456358,-2.301293898055965
-1.5589603527493487,49.3969098507122,-2.124032173901255
9.31493847961202,20.057139406712682,-2.3151956314678808
-45.589323756937816,14.70724873660001,-2.058766568085461
13.76124333507458,39.32651969060632,14.04828799021809
11.30161458161473,16.288264542439236,-2.321787327355842
28.81101918782489,39.42139219771342,8.781323023934961
6.897546940859936,12.377265969484741,-2.3691639789009913
14.620347527157145,29.559483976669668,-2.2292098166327055
36.40774998329196,-22.083400118282828,-1.3068000957209656
16.81567422857038,-10.484089063698041,-2.320750266214699
20.011672953530038,39.24044306640928,21.834483202911724
16.457123580554345,39.146646332261646,28.752819703700094
18.92898287137708,15.75782809018855,-2.273299677673161
18.90936118144946,39.44174442089314,5.667533069094281
-1.608927704289967,-6.6196141509626,-2.3904445570568083
-7.671194101125462,24.66515037902819,7.662849691287727
19.95194597903926,33.822930511685044,-2.1707827704882106
18.686136000722573,26.93108354189516,-2.215781296776768
22.21920260867519,17.15253254920701,-2.243788585530604
-4.70454555180567,-2.4828681264111414,-2.3971454199155606
10.04553894074843,41.33037895296238,21.737776220361802
26.538324404430554,18.969918397467605,-2.2051202023523917
3.247156877173967,48.66541068006197,-2.0961875781519823
-9.096993821513294,-2.227833133608952,-2.407183620087944
10.144793332859553,41.738741477152935,16.872657348437343
8.029828890917804,-31.129950136884098,-2.1731962336136292
26.496385790931722,10.812042945721066,0.17559670860144086
8.104004282298552,27.405019122815837,-2.284439524350762
2.1601626986654536,-5.906468093727958,-2.3817429310588305
31.295892044499983,2.1428813605143135,10.576895086833204
33.72395338698154,38.68168704263541,16.60476009114208
21.190916954978924,39.148121437908365,29.350826996539315
20.032558845696688,39.281397746428276,18.582364892622746
-46.59535948694996,0.8172723254933926,-2.0028784483217428
-9.04169942345901,2.434111451275951,-2.4066167355865993
31.187826958862928,39.53250122914841,0.3089705609553423
-4.796403255360144,26.537291986647716,-0.4964632623488522
-44.42064954425878,-6.907562717415793,9.229114541650048
20.67227781622734,39.3355076195043,14.378111852769186
7.9262388383854585,47.65986407590025,-2.0764541356666193
-6.911031424011232,5.591172795302654,-2.4014376581745434
-34.59005328451361,-40.67214341439421,4.26796765742293
8.649862698754507,4.43019723562541,-2.3710494788301495
24.472950646598786,39.25273459475247,21.53157348205758
-30.61613009008119,-6.705921599706044,-2.1186468711602777
-31.561779647903148,-43.185188481065055,0.9847301397978266
-36.5168036995063,-38.8968492396725,0.32736822136736976
32.79999045695809,1.0351636336663985,3.0289340609244495
-12.425277439705932,-4.717940633527779,-2.390277400850868
-45.48651000497533,9.880123294213146,-2.000499531856258
-20.468377299961684,-11.453234357700211,-2.1648758835979445
28.78809757222398,39.39002912816986,11.270746615399059
15.923872858778251,39.21851442602227,22.959827589702655
-17.703324642371708,-11.3850415985415,-2.203550594287633
-20.01833958812112,-1.8652466563063896,-2.3545749499028474
25.258490934896695,39.426620000311225,7.829020549941968
12.702250108485774,39.374257076121786,10.093882692935948
-45.1868117764886,-5.33183647826201,-1.3963695637146505
10.405148868081854,40.63067684145439,2.318525223446857
-7.438632519824023,-12.971267194180298,-2.311897127192056
30.330457968562314,18.983519187365793,-1.9779800034337491
31.20908612664414,-4.797531043721328,-1.7454880485254152
28.647422847700017,-8.471398483400307,-2.01939912366621
31.000455662627544,2.505209436840733,7.184817832385503
13.284193011977115,39.51200963256393,-0.7674210564019927
37.72944618594507,-1.5886561184430636,-1.1589142078393895
36.199078700251206,-10.704516843699839,-1.1584773254366076
-11.28715454765676,-6.873197379112937,-2.376668111935066
38.27682754129092,36.95723861904207,-0.9795273210744895
27.331846308911775,11.943559399897891,8.45174777321796
5.470426008052689,1.3396949096386832,-2.373475496824114
-2.0574350124283596,12.23959374082991,-2.389691177925685
-19.27109636454316,-16.04262763009393,-2.004387335995933
37.03016025493987,-6.158429112112364,-1.1520364132069925
10.524059083375125,45.737728847645414,0.2879801874898991
-37.40002115683765,0.19695537134323673,-2.0674836428058416
12.182969562146521,39.413481485378654,6.8976777700762755
9.996955394049957,2.061427689051034,-2.3580027116118356
14.603461812848467,-6.782141043030311,-2.28755201421365
31.023023796117364,39.32360301888194,16.888299570537917
-5.703552568174014,-20.195640969464115,-2.1969941316001482
-45.09809295701177,5.2418404359644475,-1.9512697060770554
-2.2101180476070774,8.56816073583507,-2.3903876302560154
-11.767167500620863,-26.17338824556217,-1.9398488078429228
-7.472854857951862,-5.623821080111661,-2.4037836939552832
30.71367986900663,-9.908322655938553,-1.7840001628909201
13.821158096611818,11.505712418550164,-2.3301618086526634
-8.761350875638165,23.955898987091427,0.15651568495908422
27.63981051920471,5.699482340225785,-0.1731660589673063
-5.954194603726221,10.053661868343083,-2.3988243416393016
4.8077780782699255,-7.89532603343809,-2.37586553908283
15.965120636303915,39.32010256179037,14.891348467550507
-24.788771230490664,17.654241850312264,-2.432695095866165
22.091392269349107,40.81166044538486,-1.9944805062276207
-12.996575681350492,-11.655336415135523,-2.2619844026517026
-30.19635650239161,-27.756176346145427,2.7725211339513605
3.1093460589318673,-15.078866952697359,-2.380434654218188
-40.96474648676686,-11.64604304438424,-0.261320192941946
-14.687124228710186,-17.705354726538587,-2.1232749374730244
-21.272732000123945,8.334755490076097,-2.3918949855346625
39.22027714079057,36.94901100373114,2.315810523904098
-31.000769418288687,-26.458002657596513,0.2500804840252669
13.068720368560276,-15.312583945995941,-2.357641648333067
15.991048878984289,39.38396059234737,9.819524061727297
29.663390566633456,2.0311012910100468,-2.0098760063105985
6.052838704247579,3.5847415620310463,-2.3719293036809317
26.654929545509265,8.290042231783135,10.181544483027144
-10.024055301875928,13.665697480364974,-2.4078065608056476
-48.48175830154687,-0.9347256929112031,10.57685308314605
-32.677214520588535,-23.96937338443806,0.24866561443440338
-27.83782626919116,9.359257112780396,-2.3476612352377892
-0.6457350479539615,-2.6567488705746016,-2.387863858659261
36.514897807552664,-18.06054856324308,0.24996359458998943
-19.087577330455776,-4.923553659153486,-2.3085850839520607
-3.3339655106589166,41.25581217842194,-2.2880359356370876
28.64943242010415,-29.672384216908757,-2.2800640728948514
38.33359090511079,-16.67178003267733,0.2564974629612259
-7.719531663288951,-28.674810659448532,-2.0073665603014246
17.432823534413835,-14.103528505496799,-2.347530131268952
7.622452585007431,7.730009264146019,-2.36794218320044
0.5036708064208782,-7.3559028857905835,-2.385674512416475
-1.3077583307364535,29.82391219953877,-2.3863133665035683
11.386309672308466,-22.920471098644022,-2.3622141315077307
26.448511932130792,10.792507669422733,3.7013296907035778
10.09176059256593,39.40693867972105,17.733755754828923
7.026043532856949,-0.20950720615118673,-2.370058153382485
-13.86328146307386,11.500008907505618,-2.559011067879836
-32.867480746469795,-24.108937367400024,10.47647764109989
-47.42465578326591,-2.079539004404464,0.29127732081979124
30.446916468849093,3.214283234703471,-0.18786047058081226
-30.55112145591354,-27.398262985480198,6.861487484980937
1.3605139942160958,-43.108977726343696,-1.8536555414392266
-30.889850364494407,-27.025499408038524,10.013602781046272
15.409849221676705,15.62729002433514,-2.2976577298305445
25.111892673037786,39.19779105016077,25.99529088537688
16.926684237312177,1.7869513130755683,-2.2054173085447264
-50.50266180772341,2.1264919257783466,9.09064563553947
10.281055184185036,47.33233640627155,24.75431450198312
-15.886121222761819,-13.558213083665294,-2.186491677239638
9.816518410161011,38.332155770969415,31.272621198175685
9.931847064886163,43.16396595754977,29.203372716261285
10.450220280147194,42.995360116361965,1.9016482712791527
28.309953720379745,-16.699873687851472,-2.2218404465426285
-51.799622970240264,4.095346923439658,8.03387185697927
-25.004932613354374,35.90442891157797,-2.418675926841424
9.982232634355768,38.979247050167096,23.121317630465967
-3.9815740837769034,4.331613583046971,-2.394845752875032
-1.8256918548790892,-14.186962116445223,-2.391655688437475
-21.480471746490863,38.38831779363215,-2.4317165884216605
19.040990595366885,-22.310276651714393,-2.344621061382164
-28.044572846326783,-21.10540923835451,-1.940252939242651
-17.54785807228815,40.15681957310624,-2.4225407065081934
28.598041227896715,-6.211779564396217,-1.978243654863689
14.90581084294775,39.46301322340416,3.372067619004125
24.27011063491985,-14.316794227097922,-2.252466891893896
30.880800406856785,16.29763262018384,3.655543841637846
6.633653080056122,-5.102581598016791,-2.371419087268871
-20.657976686678367,-20.441539098061366,-1.9645383821847413
-28.015245647787335,32.82538677478031,-2.3855912361386564
-14.211787545450436,-1.676925728483664,-2.392730508756787
32.582033270467,39.277699826207666,20.772464735341565
3.6199724034715004,-10.28762173047451,-2.378812479346867
-39.02836083322479,-14.819265833585542,6.980223454380084
-25.022125219184325,-24.159490529443115,-1.9227322052276254
13.67518017280035,0.4315869913832757,-2.2876619276337538
-36.13259832763306,-19.069318327179076,5.804423595418543
-47.937836148004415,-1.512912167526152,5.021143037684008
-10.43081218974738,0.1829541445535414,-2.4100115056443423
-0.9742986885880405,5.036604674067706,-2.3878900734966657
15.119079961299233,8.705323919436067,-2.2605417913060486
41.79121542807255,-26.77335860999376,-0.9137144651251844
-32.65731074393435,8.791658550763607,-2.2861595954477707
12.200922798082154,39.4715625245327,2.283831314844483
7.374533475089657,18.821964774888965,-2.3674627352559576
-5.3373665021369145,12.214121104633795,-2.3972072965698366
14.2442020679453,39.15853017531318,27.473872060370876
10.151627338413242,-26.735560267101263,-2.2860274062526016
-37.390961636632944,-17.44425139563305,11.69119772410316
12.110132990619872,39.177845760551456,25.616128224043404
4.448675533325053,5.102672061002724,-2.375460809071086
20.30808590738391,4.18764003148648,-2.1707975936452226
36.15709654893002,36.667291553585784,17.363116483388055
34.28604072268204,-2.710699872685016,-1.478139987457837
15.52339920989596,19.187870537142775,-2.278044249875881
-32.46356320730974,-24.43099385324391,3.750087657870438
19.86944417055504,-35.50920790772228,-2.249338727868022
-36.19663357831283,-19.103113532503105,8.927318869556954
11.994349472602815,13.421500321516328,-2.332305270675375
-30.953954617773615,29.05992404515342,-2.347021602944511
-34.651349052037745,-21.100584782604674,1.743626819205222
28.306430390038184,6.932180537265872,6.356679330496247
-17.06614083806262,13.127212885351012,-2.521553753205533
-34.860738563868004,-20.64597200075739,-1.741282284763374
-50.37573781618813,2.121147596716743,4.6537815924867
