15.8005735778559,18.028560645275242,-2.2126649606891866
13.734489444572995,6.3642137006985395,-2.340427037193809
16.239566001873662,49.89484600361698,0.3219628431336042
5.013428402431381,20.395554964128525,-1.6788841567468187
9.267675161779444,16.063774763727075,-1.9415383070565757
-19.708889952990795,-3.0123403484523887,-2.583382218302133
-27.82846891425899,-16.38359209514671,-3.3807887336945974
35.51908162474503,6.775183094806235,-2.4443028284826855
51.226613048163735,-6.089195483801278,6.684278259496509
-18.661986801442858,7.902596053725258,-2.121687051308932
3.0598146224643794,-9.929164097644026,3.36180392231787
-5.589256096021773,27.466099521859615,-1.204628598382016
-8.329086148346727,-6.8971393514463015,-2.220118035220387
14.291747152658772,26.239400627156037,-2.0197619896884635
0.6930416235395542,9.99539830532273,-1.8019276290640507
20.56096907391145,26.587134101006665,-2.2719602778053454
11.605844368961773,-11.225043576026069,-2.2938903424240484
-44.808855758847926,-31.854218501226004,-2.362816901683068
-10.302012344445252,14.491687659841707,-1.6411186163556075
17.743613561433214,-8.833618793323115,6.145668898909216
-24.43862830655012,7.623808022090315,-2.3628865656979214
1.949974180755792,34.20101860273584,-1.0513080386673819
30.953173809623042,-9.656067919970438,-2.59189287775794
-12.35422281818914,25.825802713391184,-1.2303985717208954
12.14877781202442,34.431050452054826,-1.5691876246022392
15.854498742199944,0.4591079653417871,-2.452334635099731
-36.27799419026836,12.301969147598683,-2.5894747410638357
5.3131226006022745,27.33984640497505,-1.5396078643975504
37.18514330172997,19.50137211849824,-2.3211066604533754
19.59583111453976,41.90863300836023,-1.4197980835298647
-5.2198922476029495,1.558356315866726,-1.911539948338977
1.490459151302655,45.97190027212658,0.28223180123358527
-18.969108970804342,-8.230514185821672,-2.6792607889712836
-28.677084116697532,22.745024278423706,-1.5730797498529445
24.150390334808808,-5.936403939352587,-2.603584086704328
18.57335283329871,9.45183258186289,-2.440650245912801
39.47544312459536,-7.169947579857201,9.268494548399438
43.47183919041197,11.662930858150741,-2.488084637283122
22.796232630824022,31.02188559182533,-2.1281001695166895
35.3330816686313,-7.317573996988357,4.675340425552413
43.932058217021776,-7.423702788796786,-2.462971948681916
24.35911261677161,17.31667730964983,-2.389066756026069
-18.10101853972903,-20.149092757260657,-2.8356156418857728
-13.40311787909168,-2.7274880531103443,-2.2869648784711214
3.8553788215963136,3.525375387178964,-1.9784560327843597
-13.431337180756536,5.113172379653789,-2.0417951063387414
6.204877602871667,36.71928306319409,-1.1428628089474808
-26.552400471277725,34.58118860831115,-0.8026543314492937
-2.268220082576378,-10.31318121509086,2.0331723558061285
33.787892084337,11.327362370861561,-2.4089224291328812
3.2100520307567,-6.307922666224401,-2.0055073109958386
9.86051344645945,10.976200020504569,-2.096236781521419
-26.912224790322956,-1.7724393533938958,-2.823562724607254
-3.774878046966443,-8.338323547069153,-1.996460403260306
-17.170450717071844,42.393279640949395,-0.280651721866723
-28.898164445314755,3.7952497697873544,-2.690194112214131
23.832402211230487,3.34383056357914,-2.5194688529297236
26.469466645121734,-7.902243680028296,1.1872157060881847
31.9111966552998,42.32730926006577,-1.6267979381873234
-40.88751559880597,-31.394574106518323,6.037212778248805
24.28984934877465,42.10189310397246,-1.491688687015059
31.035105679540116,3.194812827311845,-2.493951356187013
-9.21435415313416,-11.0493331133998,5.85621721085928
9.473807626459818,-9.624035230611637,8.668259524159708
-12.754048287208352,21.06778926087732,-1.361400411798785
27.995964786562464,11.74108067533063,-2.4267405062256344
-7.972361917638551,44.77385723662767,-0.27905357930473884
-29.873309866888935,18.226296308300704,-1.9344769526116663
7.992250564165873,-2.7101944871754076,-2.1690434097186397
13.171495174001176,-9.18986660583967,5.635643410788783
-0.7680458540910309,0.10086889277833398,-1.838166173867268
10.659426996567907,29.068201292301755,-1.711509186868757
-33.12036320776744,-29.547357426200485,3.0003120753539014
22.512416073176233,7.547268532406858,-2.4857590250303163
-7.930439397663931,-2.550852057260767,-2.032463579450221
-36.69311813480006,-1.5133967628825937,-3.3896403825291856
-20.967589186800858,18.83631810007627,-1.5581045237461217
43.507339936807135,2.329568677751047,-2.4085097648819396
4.9105003169568375,-10.265122644789793,-2.046476709242037
37.295052560114556,-3.5074044486215437,-2.5321889543877374
-27.479884459771906,10.849243838870837,-2.3616502630443987
-0.7546461761649822,14.093874128715544,-1.6529488034473587
20.118418110008705,16.659634774330424,-2.4109364212266704
31.27248966228551,27.21705460311477,-2.2917586750470518
24.519425722795802,24.136686622901635,-2.3257800056857056
-6.916871871989441,23.464754532432984,-1.352302120789149
1.6777306889717607,29.42608116055363,-1.2667248826670519
-23.844089619186168,22.502018344974204,-1.4090467897927492
-3.806589660254256,-10.788318188909598,10.24162905190883
-18.009566847065322,13.927569085493525,-1.8198912070256883
-36.121483645443796,-29.911433480978726,-3.1702270853295444
-36.90166450792829,-30.557484684201686,6.80679085310824
16.649326084270502,22.08382160509037,-2.2107860619105826
-30.896427398399812,-35.25303131115707,6.659714207193243
34.68080389364645,-7.182485556930774,0.21731719024597954
11.74189579408481,41.1672241527803,-1.313776598950109
-41.924058501258756,-31.380248771228008,0.9640762908135088
-6.186232513257383,-11.697300124658678,-2.0458966602934243
0.9406849657828124,-10.387991565959831,10.053391210883401
-4.78106308995009,16.219249667478255,-1.560717088146913
24.402844350867312,-8.275072671976794,5.952648924931876
-3.5563505997943228,7.674893093032806,-1.8450456826939132
6.267494674802607,47.722574997410064,0.29534026892036613
26.896195633886776,36.60125413361459,-1.9520941578288349
8.898421882203323,25.219163401487627,-1.8077689932120118
21.851435487473598,-0.17188793651350256,-2.559179536330718
15.608761170078155,-7.770787248894373,-2.477162494329222
9.385820595259572,45.319660006979724,-0.28398249376867013
-26.378562081939553,14.79013712696264,-2.04429164581469
7.477933592930206,51.98924827883901,0.966964308764136
27.588962844650172,-3.9682903461807832,-2.572657560940775
9.341678866162814,5.046273017418987,-2.1797666144393286
-5.160660154378395,-10.692863820827078,5.350374839160139
-4.063135317105178,39.47017893462415,-0.7304799977963399
10.998076680422177,-9.171609951177816,0.9680333835869949
-14.951433423517658,-11.480127313653847,-2.4424934240351894
-9.53995925614728,10.693576112181319,-1.8568365372373001
-31.672588742616924,-32.747056456334654,-0.8387141208449768
-0.6339095272391488,-5.955553113085775,-1.8570085912633458
-40.05400824883128,16.961251279988065,-2.404504826603927
-20.271277631672834,27.78682883342547,-1.0555639555118064
-11.27796463431414,36.597237204959015,-0.7050155540791798
39.94014155626398,-6.749142933196171,0.2485470796235095
-15.948226029835105,24.279492088749993,-1.24846133533133
5.480031130226725,-9.853539129531558,6.296074180482411
18.50077196117023,-8.928964053510915,9.870697822791888
5.28163121078787,11.295562959520273,-1.9279242770988723
26.149632813037258,6.331967185266627,-2.483352356227181
-36.572061943700895,5.260384783883102,-2.953533286088952
18.802976301617935,-8.512375666156103,0.6334281409799185
-3.1230674920705206,24.43456288971742,-1.3617190229426461
-1.8640947479759438,28.303894738022304,-1.219077123319355
18.963452136259775,13.133638913701224,-2.4149417242952964
6.2904381275089625,-9.576528603614495,1.3418557226925534
6.407298163860438,0.8189393318747064,-2.090033124209168
11.716026869773888,-7.548855416063122,-2.3303635985012563
45.331983323955605,-6.5203781965498635,5.363629236116077
-38.888533376772294,-30.625546676429952,-0.9112860569221444
-0.21644666331696114,49.12734028739687,0.9044356880654482
-13.998845041757034,0.9706248814768691,-2.1695958598122957
-25.443098164650095,42.0282108241877,-0.30145949269522987
2.6500631055260064,6.961214775828199,-1.9144191168553997
31.3685386372086,-7.710695924829787,6.219533307111487
4.656686100316593,43.74936833997297,-0.2699625269833638
0.8554767393721434,42.47520505124345,-0.26068072064170644
-21.51208864768109,5.568688703341748,-2.32634889371509
-6.831547329912231,31.582323070409956,-0.9916535959140317
12.171356756500574,18.390611392457842,-2.0355289942618087
-11.086180817780441,-9.890209991345285,-2.2970249546037147
28.073448250212245,-7.635972404554779,-1.9666516147931286
-21.014107980555128,1.457035634520345,-2.466946535699768
31.606582417545184,-0.6365759985534628,-2.5270355133372955
0.44084067758888706,21.88814413499974,-1.4798912263895467
1.6581101846102815,17.631073744519348,-1.63452205340786
27.806093736976862,-7.930975717197732,4.470631988733593
22.27360128269272,-8.167819688464943,-0.7280706241748831
-16.708781603489925,-1.306554433571655,-2.381074299905341
1.9381539821277685,-10.160824959150364,6.639549526626511
-8.96628048350505,26.745124544958223,-1.2123239519861626
-4.764661892775191,20.789126989345824,-1.4417364887310846
29.63029102418684,18.43825181402499,-2.359080463753562
5.235464132100602,23.80469635827048,-1.6476043692162887
49.37082796800065,-5.868602369077681,-2.1367920726123937
12.616431541176812,46.38397301728121,-0.29495257467788927
-32.038023812354865,-31.537922197620535,-4.14945629276004
18.889498780473684,-6.926855611996272,-2.6069305151550703
-17.2235249880098,-5.307676768198219,-2.5605110893624103
-13.581109161949316,13.461962013183314,-1.7650018032398076
15.10416611849999,-11.099199096481366,-2.4286703649686734
17.913213740722004,47.054625950023066,-0.3089414261631063
-23.12305520297571,-3.244304876434262,-2.734549227161457
24.428475456331178,-2.600168789305369,-2.571879932748229
-10.108363225794104,4.427546668406522,-1.984667113920507
-30.54448769189028,9.118808023561968,-2.5481083748507705
26.30956201883967,14.632023782578347,-2.4064627077966136
50.544233190767734,-6.008082482206073,3.4407341769158175
20.9979390149806,-8.589442453403844,6.7302391124240355
-31.682522573444867,-31.962933573464337,4.71155874878677
19.755963396735584,38.49143014722234,-1.8594525315043493
34.40811584991351,33.87101798154025,-2.0750643745751303
-32.31488363020689,-8.245931054731484,-3.4914725164511293
-19.50044432571838,-14.226125738828527,-2.8269050054081717
13.799439018644286,2.9849457423361847,-2.360661719269256
0.5147349759851987,-2.890820884394416,-1.8847252999304274
-10.656956174665888,-4.623950925068054,-2.236727750387476
-17.595736709460844,19.7234961597217,-1.4611226144208755
-11.544875437211706,18.05486793716098,-1.4486492194882634
-35.18380456282569,-29.87031226816197,0.28319722493471605
14.009148140315943,29.960670958050475,-1.8283217833864098
11.907580435882394,-1.5638447207789359,-2.3123895918400077
-13.411560786339583,29.899722254760665,-1.0056820884776803
13.11201166551534,15.336567476259587,-2.112405504350605
-24.052927203331677,-9.400186717230545,-3.024404840318946
-4.722327515730584,4.680898509282794,-1.8840658981732232
-18.5937301046598,34.420780437812326,-0.7202268231141512
12.57899609265965,9.41540587412627,-2.2322780581032275
-7.219115085506916,13.765381601616639,-1.6272627061805536
44.48284758491311,-6.398241776459942,0.827350411687208
-21.37002468053886,15.70362486516251,-1.7926581284253233
-6.152226659936169,9.366116221244793,-1.8736674839068457
0.7843002181594319,-10.029969452533152,1.3035733883361342
9.097232345793095,39.07158423157437,-1.2311507420955297
-27.012813758689507,27.441160042715076,-1.1817190061600764
31.742219428955824,-7.390699686116188,-0.6000003709517634
-16.513109533068228,10.07497423828217,-2.0251297585409174
-5.46798885919417,-5.7941120834815,-2.047622806092819
-42.935195400147315,-31.322439539395802,-4.905380841104192
24.93826245680171,9.395072038172627,-2.459718811418358
8.01430589360327,-10.176621678884741,-2.165854002817695
25.57983802285908,-8.325618799571881,9.439413818772824
4.42116819898812,30.737530405058543,-1.3346297069177142
5.289253765948045,-4.090406385756703,-2.0731765998740292
27.01159627030685,3.116060589572345,-2.5096947415401383
6.212677444333534,16.31952912093578,-1.8281173616363542
-32.87464995022331,17.905751411657956,-2.0693733179673606
-21.92733881818186,9.285340465456937,-2.1978665033057596
-10.019384782960008,22.337207946685467,-1.3533198644412963
15.586593883099296,9.176372481008539,-2.343603335665476
48.16548587296719,-6.325662985169701,6.294504355247944
-0.08041295531364005,-10.2225818811609,4.1611592926046725
-43.92392449588029,-32.043745382616244,5.692047140826245
-10.369115944205936,7.425458112294361,-1.9718789042432292
-41.63627015348095,-31.164838568361866,-2.2351918829692994
22.479388637771873,-10.511015790374433,-2.597941527555718
-9.489463922250966,-10.827542112345803,0.08834254817705005
7.749562152936061,13.059502834158655,-1.9676496293105485
22.928252727605376,44.672143825105024,-0.924406378860306
1.1160208072661237,2.3867784003663273,-1.8799324417139007
-4.563903779634805,-10.419674954827006,0.06979921850555645
17.631865710646313,26.641301943213126,-2.1595806819483006
-5.923383465552825,-10.875229610537692,8.165089471556604
-33.31035989637622,28.478721084094982,-1.3449516124030072
37.291738209578455,-7.24713570669511,6.8321638379733525
20.04045019134692,31.95797364880134,-2.085240941842313
-25.51292797120123,-18.136914420989438,-3.2770975925013004
27.189993818977076,42.19960253765941,-1.540619117020878
-36.57810447816993,22.937677117589796,-1.855577619026846
-29.770998149686765,-14.24147581172439,-3.455001514486914
6.7543570810905464,3.7564256438694614,-2.087837973063586
3.542816497316863,-9.765650732263719,0.4464728565414904
16.402803928642438,5.276016125732926,-2.4479413337680356
17.5339583024618,-8.729242386039632,3.2749463777173347
-2.2103714244375077,10.218572903173387,-1.7480851102346784
-0.48294865066434983,7.332957612329514,-1.7929413340161369
-17.954696772348004,5.121117171585224,-2.1865990468063408
46.51886580763729,-6.1094093045701445,-2.016451056503254
13.79250530728006,21.994541886655284,-2.075264501337498
-26.67076165933175,5.865809584028677,-2.520535643709888
43.30056807696939,-6.771545122856169,7.327956713649627
9.810247373826053,-4.88400997173085,-2.2498226224124576
7.732348043094846,21.086072398749565,-1.795305232166646
-33.277897486611614,13.13833851105621,-2.4184861765806613
19.633825565644376,1.5352802166860045,-2.5517657496099
18.13245030090899,44.32698486265209,-0.8816890327849165
-19.2168420343035,10.774648290216069,-2.0334846203455497
2.0963102750494227,12.405564670961013,-1.7874532306390842
13.476072374684309,49.5444195425786,0.31504964224519216
16.444585103080357,14.31204152625805,-2.282302073065374
31.761988312390848,-7.807409732321435,9.267810427095435
38.41196109552256,-6.976786723460853,2.639047808265662
-31.749388030476908,-32.030390833425884,1.9382837704010707
-2.7149619269317817,-11.044967786794162,-1.9017198006599014
21.25233047783518,10.166422668164637,-2.466388047122616
-5.362587481524708,-1.229051909346105,-1.9305176190941609
17.18387736292394,-4.674011264204023,-2.530023155265689
15.321064988107016,-9.091582342932046,7.507817977648635
-35.48723439493906,-30.127917832691466,4.296679024206459
-24.583328637643334,11.864567499229825,-2.1820030618759882
40.01693631976554,18.542832291946965,-2.4380658417605687
17.77835406617531,-1.6719611278295692,-2.5369277332273796
-8.057619322299587,2.622560269911863,-1.9575174719404498
-2.5771350471596417,2.258650190323908,-1.8587992348687175
9.147645640422319,7.766159322252677,-2.158072207681133
36.33507159725542,3.7404014028131405,-2.469151962064854
-45.07051760148959,-32.0402315865366,0.339311820798939
-8.777311996616683,16.73654563458068,-1.5106817819905287
8.066383538747655,28.28083514496938,-1.6256991405460153
-10.953555870723596,-1.5368503173019492,-2.1296702250639665
10.499879890174535,-9.432609341107447,6.153223319421778
-18.04219207900221,16.612854953604042,-1.6578810385823344
-8.317712539356023,-9.974131128613797,-2.171493266153415
21.474918481047094,-6.125170209560782,-2.6153065616357214
10.929034712866583,13.779402648186695,-2.0597207969400784
-20.08349489572733,-5.653228737002997,-2.7033941277224063
12.728888167618852,-9.115321538819114,3.0144481841382467
-33.70832713729095,-29.337011225611914,-4.12457627204313
-9.35840964685648,-10.946137380045725,3.141227802845916
15.225816002755879,46.78017532298962,-0.30186440996704095
11.689042698133509,25.819912262031732,-1.9158967543840046
33.56456266636593,-7.381991406428888,2.747161761156111
24.95248751902589,-8.121431378839704,3.400092327471339
13.434729885253283,-8.89143307262195,-0.8905828995717144
-42.157540840160685,-31.555010808596375,3.5596386954666523
-16.058353090294343,7.50863849632799,-2.0760854997828853
25.31956213650339,-7.898621743854253,-1.139901816906029
-7.6449704292101215,0.060136927504693856,-1.9649557535439972
9.870444970994145,33.062181389387845,-1.4829139381337622
21.9562127491896,14.422156872279562,-2.4246425474346833
42.42185228896055,-6.634127442836566,2.3735617247852465
48.66737739486135,-6.391577333692824,8.827692276265184
-38.746571232027684,11.567473260647889,-2.7334137562412026
-0.5608043311966349,33.622988927904665,-1.03200766477554
24.27187157518699,0.7028547389051679,-2.542103720948723
50.01544593116001,-5.945226696873014,0.9272590673340758
35.70426472898913,21.614698665057485,-2.3072093660668447
-17.06959185225419,-10.049465207720331,-2.5665872032996435
22.674094828225684,19.24983103256026,-2.3775876170772197
3.67012707531918,9.296008964339803,-1.924312150887715
7.9980000394213855,-9.658501582812312,6.6042283291134956
7.995611962129745,18.254477248638434,-1.839417662907831
1.0947467485207907,-7.802561862541794,-1.9222836023978307
-2.7067242973905254,-10.456194650520745,4.551701286532511
8.54356295950376,-9.34330903166693,0.2330790777699594
12.128475414933062,-9.37946929416105,8.074635980392745
-4.7780580248055795,-10.554246585400554,2.8265641347156025
5.5740411636918115,-9.739254600932085,3.7836219095614267
41.67930931372101,-6.518005103435464,-1.8130606686501802
-10.850285699099933,-7.127118153254662,-2.33467991858284
17.390565394018083,2.6580036696004274,-2.499381163783244
15.104695287729497,-8.963187681789053,4.057468257974689
-13.189494035407431,-5.342109863548289,-2.3793376666690724
-15.06149057498104,20.122173555252928,-1.3894309343680633
25.11873115470874,30.120963802971072,-2.1680728903590194
2.807583392003722,26.37712684855669,-1.4663513247693265
-15.68055814293386,14.797973528325274,-1.723482164564223
3.8245842385341264,46.82512669368583,0.2882757873698487
-22.26229125028604,-0.9182015927008099,-2.609433821182799
2.988201145465159,22.753055354817523,-1.5512648323033167
11.783248948252302,4.605042010597346,-2.275231031476399
20.046893565090148,7.272681277419934,-2.4974866234092654
-2.197540181024663,21.347382597847286,-1.450662660326372
-1.5189214552407775,-10.560081026558693,9.317717136059812
5.558980752552977,-7.819735608888702,-2.092717273223561
4.206334207986675,18.0657297809377,-1.7120618147755762
-20.55739193018779,-20.23649870159081,-3.0199625369887935
3.232438594894496,1.127983196304704,-1.9672883080935486
29.42061388866149,-7.615915074096215,0.1864753247274885
-12.413071536664189,15.762205059129384,-1.6037831657868664
2.810978983319585,-3.755472055102112,-1.9768704497907563
-1.334327389445395,-8.532341277418157,-1.8837025075719305
44.43295470730924,9.041952344359418,-2.5065735541721876
23.913565907942893,-8.109156985517592,1.0852382633018054
-34.52744266498997,-30.049903364498117,7.07704296140525
-16.460068687733365,-7.627177921659439,-2.577350431847932
2.6182874137517023,19.936421800226864,-1.6073349504339904
-12.795162584123643,-12.595434863506838,-2.326395324107179
-28.774957415519477,-3.3194821169339233,-3.032448300884469
6.961727782692773,44.51668892677633,-0.27647438913232797
-3.184749539657412,-0.131354049176274,-1.8840011595191086
19.663767141375462,-8.612892587096272,4.682471654651647
13.006116983104352,0.6964030158362599,-2.3424219628011964
-23.750866662190617,15.303127965814479,-1.9099102882115362
-3.0534477679915493,-5.773642500604837,-1.9375795604717294
-6.100064098148423,-8.975738816521268,-2.0895366551763943
2.9964775922874214,-10.165232559778072,8.806666547884404
14.685530012310624,35.900568083899984,-1.6670302390050964
-16.0651053535984,12.423833764465776,-1.8744761631876046
1.3592316285798578,4.76548200653291,-1.8767116905749532
-13.67410939303605,7.6669058906193674,-2.031281694921218
34.12217370771135,-7.504629081057866,6.726950574767168
-31.0636270778896,22.826906092753376,-1.6567499222391653
14.29180989369651,-1.5212213342869183,-2.4031239805424285
-18.597903478733436,0.14629497701738547,-2.4098476280145955
21.350525461781466,3.2632507189693207,-2.5294742190879873
7.556448206416928,-9.84133095302263,10.05598629141626
-31.484398710553958,-32.552482225141695,7.001978596413535
20.69490038637399,-8.46548110368672,-2.618591237115775
21.88758031269881,-2.6017288136171404,-2.581379274756627
11.415458036916373,7.103578216133158,-2.2480708849347546
-1.20489762878097,-10.136449840772928,-0.06263512637607112
4.6662581655085384,5.737211084132174,-1.9977686688676033
-7.363919860681118,-10.83539783710305,4.417288620996867
25.88746797929771,44.871065025847294,-0.9536894285011164
16.806342328123733,-8.625958625010464,-0.5797427486129201
-3.618441013833845,-10.670631709665482,7.832450995609076
10.172097869013513,-9.138145043706885,-1.4315364059145421
-13.877900782487401,-15.44814229810655,-2.432021916379786
6.010645009680543,-1.4774757765338629,-2.0869676530871746
4.220003005504046,35.50164575930021,-1.0971889137804771
-3.9925824367604585,18.45775522199792,-1.5095737566355645
-28.855835540198107,34.84672816512492,-0.8329218094919075
-31.25451381113631,-34.790865303047035,-2.009991591179528
-6.644915481249997,17.638251798536377,-1.5066786157884606
-19.645831657425262,3.319781070647663,-2.3334122153013053
-15.796259017991192,4.296579347201085,-2.121120242038184
8.45127419399588,-0.3778678208665264,-2.174299612123825
-9.058858058291769,-11.137956584951944,8.249781960837291
29.489637986866697,42.26640506187918,-1.581639175038816
-1.6256624475235435,-2.049646471347707,-1.8665637778342636
-30.45985540618933,2.111966626907122,-2.8181830229750764
7.634027713137153,9.625035005414649,-2.054071448163341
-31.200170613726293,-34.73037334106505,0.28646969856643395
37.135689217041076,-1.2039795506784718,-2.5116111761536133
23.558346262329916,-8.312413086505222,-2.615364711200043
9.865165759832676,42.36977140877262,-0.8008853514261418
30.488239139865545,5.4286874452192855,-2.475459396926056
-7.34813445947708,11.491643887532714,-1.7673820873404327
44.90199170147867,-6.458529854732088,3.066514885560772
42.90285771579985,-6.709349318595591,5.085577269366819
-19.369933925664963,41.80188874156152,-0.28269533927399526
33.684323173527,25.863762192733645,-2.3476343295733626
-11.477679403922913,12.552082327427396,-1.7806399932720225
41.071682615761326,-6.940352379326192,6.964642184530888
23.715559266343025,47.63616461843682,-0.32651547002260395
3.2278357972579426,-8.567961581605402,-1.997074490705852
-11.755119655778177,2.889524254667707,-2.023993572461868
-14.994681825277224,42.96995594347137,-0.2792559397233691
28.96251634509132,9.709659217389673,-2.4418048941714074
28.59168388627363,-7.7769323956734935,2.3685598193893274
-5.792023474762798,45.31620344809874,-0.28032226771055796
1.4485364636781415,-0.2447757883766697,-1.9064457995627024
-2.96555946160553,13.709816016474875,-1.6427394531949921
-33.2776121976884,-29.68764248530315,5.222735748204513
-0.4938024696751806,17.052613383721386,-1.5746095516253658
-25.887509296639877,0.2036365325758322,-2.7102646086057836
7.371834931991431,-4.878860794377829,-2.1567701248459015
-10.13645508955365,44.22728345070304,-0.2784149013905647
34.798090958994386,8.879581995954265,-2.4276509814262988
-32.32939493042377,-29.56214121727058,0.806492167786043
17.826018762976116,7.2200306096540725,-2.492021875840843
-8.444587363784297,-12.425510514492874,-2.1343931999000287
42.59607206909193,13.701167441072444,-2.4735017967007575
-5.99974179521207,-3.6321322384316646,-1.987308346337691
16.252095093070672,-9.112350941658221,9.812702293059369
43.96918751103184,-5.226521178881335,-2.4477066806337904
12.003099025513237,11.529145162228726,-2.1564955840151785
32.830442062882994,13.297237020461644,-2.3943897930249176
-26.491490883075215,22.648923107042705,-1.49793394931038
36.49054367519731,-7.091434583687892,1.597626681822891
-7.217045195449005,-10.619283938515068,-0.39403715748818235
-15.07885313553368,-4.244490628221389,-2.4219849182142577
34.365154781277724,-7.117113796875877,-1.9400015642928476
16.737349232801318,-9.656280546781733,-2.5037398604640444
18.821516390398664,22.014734541919722,-2.3152629585414393
-24.39559500312388,34.316920931655474,-0.7751390552494172
43.77620407131281,-0.3443527264158664,-2.4200021325889547
1.3643606653049198,14.507566341115256,-1.706530319997492
31.621135813743155,-6.54882026300333,-2.581325483235783
22.524124944016435,25.700177941898538,-2.310061794665432
15.590503086630719,-3.2288341293473986,-2.4616420290878778
23.06082142251118,-8.456496498090763,7.615827721332716
6.471424158676983,-9.852060747672255,8.193875858568676
43.2107106908014,4.448192772974602,-2.401290106637684
5.4909880926897054,13.42338967025641,-1.8791929719723413
-7.77114068574451,-4.835802953437388,-2.1144285580036417
10.612123281645397,-9.30066676026403,3.259801545278279
19.84463499243373,-1.1314436657940121,-2.5754908624269
6.555079561252573,-9.464775019778326,-0.7782593539184939
8.495352485295353,2.504235216565134,-2.160836768859942
17.88765671313913,17.60843705656953,-2.316748690424639
-7.012685961809126,4.518404830610832,-1.9271667992395314
-0.9364084293317662,11.975194860117906,-1.7065175303883116
0.29980107101139375,-10.353110950104663,7.981261695028132
-39.352211887645595,-30.990703360021666,4.623299310694329
0.38931424416072863,19.32980943728892,-1.5454728470407446
22.11234879241046,-8.417944510887141,4.85746906340954
26.04103254757045,22.664015958520746,-2.333636469233313
20.818716881759585,44.52395820329604,-0.9048589282903622
37.874925623832,-6.8792446599457735,-0.7086797130345555
26.19987342005048,-8.173241257734421,7.05389262639434
11.157115481521611,-9.538785557698478,9.938935900937752
42.04719087643906,-6.575536140843194,0.2611373777464744
-38.52554730366469,-2.5372928728139517,-3.563597046204651
20.59954930163335,-8.723075348387901,9.105703060460137
16.4444390671818,11.092930550627175,-2.3230825366365524
29.361038365189643,28.201689639194157,-2.250498091711952
-13.172557325556035,-10.37366889908793,-2.3820862485561665
1.3597619477508174,-5.3287553357771795,-1.9297735625705155
-5.43000952554489,6.723645491845567,-1.885105454473171
5.471278978886831,51.40243387283448,0.9516565519181056
-2.564173793473284,16.776663082533695,-1.5664619540710418
1.8192927245958053,40.68973541976195,-0.7498402621392944
29.942962559404084,-7.751131937024279,4.394237177580463
-23.127984242540997,3.9082002548670736,-2.455610465467554
-23.049176506313827,18.74663604034072,-1.6423699761907111
-7.221375074066602,-10.911314602245204,6.485882191728696
-1.6374216185895794,-4.147400275912454,-1.879086218025602
22.22398429994599,42.02244480223835,-1.458882701646781
26.716363467550156,-9.0595934656718,-2.6038315897465845
23.305017439615998,5.341279052357828,-2.503077356339668
-2.81918197612672,5.539842257082992,-1.8440049891870398
3.6170914239344683,-9.97038699000142,5.420545730823825
-27.824918494015396,18.41521211470448,-1.8445027778301077
-43.300799959743664,-31.589158407367808,-0.9867462961022655
11.425931423237568,-3.5644024923029396,-2.304526903047511
51.65001036814924,-6.139523797451163,8.696805236860829
-14.693005040252881,-0.9676814368139258,-2.2766469143737025
8.183688388168841,48.42950814808543,0.301376318380168
12.285671121951287,43.07370681994109,-0.8246054570673904
27.60151644784316,-1.9137806405353928,-2.5537260116432816
9.494607831922377,52.27428056968501,0.9781067960672634
-2.150068915021024,40.154978072459556,-0.7403060257036189
-21.454989308637913,22.336986622963607,-1.3311063131603602
10.015031092479248,18.387423897301403,-1.932565885076325
18.853303293638437,-8.815514150023345,7.881907469231201
-1.968823565514451,47.735185807057206,-0.29315213425243736
-31.24315687087584,-33.93125618642988,4.828799819288243
38.88942814612944,-7.063509340181206,5.615442609150819
2.6814924341412736,-10.508469618459259,-1.9504432645811773
-17.120329136838663,-3.2656633910438373,-2.4761505727827378
39.607402715509465,-6.692916242248802,-1.726375244977515
6.950959946874767,5.755942311802503,-2.0848316213048363
-19.845823201192662,13.134451549947608,-1.9023746861044384
-11.428070044912896,9.770438396673736,-1.9481669986932302
-5.793628524849773,-10.954940914477023,10.298254661171447
10.375471458190374,3.19735065011823,-2.2289212361579587
-8.895789070822389,8.817746262155344,-1.9365988537959558
37.32126014492807,-5.836473014949923,-2.553499506768406
19.485349241782956,-8.5347440719233,2.491303091779078
-4.167723109376678,9.937707834288979,-1.8018183111655859
41.44285971740881,-7.0030744232383135,9.167709138668455
-32.123349047308025,-30.854927837898142,-1.9142954883970986
29.439353759434592,-8.007498434513435,9.45959692843146
1.6162551542198138,49.851967227121875,0.9182494007962478
14.50573566881331,-6.142591926165272,-2.435568914239862
-15.946270375000887,0.7129791673107507,-2.267760765916735
8.039650843260043,-9.469787308655546,2.234070449029501
-34.968866790606256,-0.5832524882085847,-3.2280621280663704
18.643267418303925,-8.440073175838434,-1.3833732343996321
32.40212775325005,-7.544349441330776,4.3107188049200555
-5.926197891823142,38.77343479782904,-0.7221024890184051
21.113860805627315,-8.335894737678592,0.9755908717112506
-11.604660057053232,5.777354359932951,-2.0042839157033
-4.450439819744574,-10.160629707988265,-1.9949290689031267
29.04731259870054,-7.90086331587274,6.18004375914099
17.782679133506722,0.29660074241865164,-2.5267486394925873
11.634004660472796,-5.61487972662787,-2.3232394288187717
12.92319378580343,-9.016624570259216,1.065193588728675
31.37512448283148,1.294057693677515,-2.51015349010233
10.05224399307018,-2.2108310931913233,-2.245008186253325
-28.689530943054933,14.283019568293884,-2.166396023260475
-43.60931386565277,-31.814228028568785,2.3199773690610974
37.60037773030799,-7.307115546696287,8.848634207885702
40.27872418345641,-6.806357115634651,2.2581543369190764
11.23456773349644,15.688262414245168,-2.02011521671803
10.576710291355333,9.205116210120945,-2.167893922771083
-5.4017091675951985,14.338287177519318,-1.604074780596015
6.995834217102292,24.52747668704614,-1.7241275596867538
-13.432607739754436,35.65549001989534,-0.7014488038797536
-9.52782341460584,37.33847674065651,-0.709422341215469
4.5196361092073065,-9.753741366102357,2.0698204053946094
1.7594053978179818,-9.881057447852038,-0.308011799244007
-13.590694695412411,17.700184097796356,-1.5085127531252829
47.800002756799415,-6.277663406680148,4.449808091565811
-14.81665006130109,2.691156725291495,-2.1394515693691964
13.318923098643152,-10.041336944576573,-2.369737856241251
35.8163224271872,-7.4176544270583165,7.978072194911399
5.570334859698348,-5.943630164808006,-2.0936378785349894
1.797197799927322,-10.093304663188448,4.77210708154961
16.939154150461086,-8.694125110140138,1.2870648345587754
4.96520127569822,2.0110438382400484,-2.0287530377347514
-0.749081052926334,2.6611634170153216,-1.8227977332130527
5.77287568200054,9.461873172383887,-1.993374662716574
32.63719818416228,34.58375451000895,-2.0436984195906507
-38.08649954715238,17.24230179061324,-2.3111057732240834
-40.55427967010766,-31.138706272406655,2.1974562565960487
36.073395393079245,-7.010367560388134,-1.1277765612957937
-38.68600959713703,-30.466054894978218,-3.3286617193235575
27.410127772462197,-8.183070398157293,9.645073571648739
-22.296069934668466,27.607846615529446,-1.0890609179412913
15.537352061261137,2.374755383681284,-2.4301694400971217
36.775267467022445,-7.146766731164771,3.4578456468710828
27.429372165843425,-6.032653892282012,-2.592228565186184
-9.24666261544648,-0.8373318798716978,-2.0251435453933313
-39.04152584299858,-30.74603149569943,0.9148711728722724
20.70681501632109,5.555370012528373,-2.5108083973758877
29.164108931726638,35.857563616758284,-1.9864483698363988
-6.519495788971785,20.268704376876556,-1.4392533266048104
15.979779178614406,-8.95966673907919,5.68035130440368
-1.3250974054747053,24.747698498859304,-1.3700004086535975
7.054779575787862,-9.670330409943,5.044480979786411
0.17151314617393829,-10.283060051428969,6.07882406872911
4.826866429046601,-0.09721605697074205,-2.034553721688139
-14.911054405706377,9.09752876660065,-2.0456517633613056
6.181812853900426,18.22990840802926,-1.7767242704519979
20.35945695197005,-8.328264204726818,-0.6750709476566533
-4.89125850969116,24.036077557788254,-1.3559349529927345
9.186114573458156,14.257097167663824,-1.9862740706816506
25.9676167555207,-8.100787100323652,4.892085317080447
-44.61394714769978,-31.715659696674127,-4.375598555765442
14.68706240264568,4.724142190146737,-2.3853856924381587
4.633134063489903,-9.998679158638119,8.068622375595366
45.663143140176324,-6.568010951327614,7.132761299168583
-0.19983421474595037,45.35677897936781,0.27831190412942797
-17.522374759048382,23.409918443759253,-1.2567326394410323
-10.72882952718111,-11.651916762824563,-2.250262041762545
46.975977372996645,-6.169442617982841,0.29071980694442423
-14.883437388336578,-6.028203770538354,-2.482754531234698
1.5271591080979754,8.408050664594963,-1.863977716772922
6.85125947873947,14.652449159275456,-1.8943248454452886
30.342822746215273,-7.458564850692531,-1.727267718129192
-14.355650746296236,25.08293955397315,-1.242082383627872
15.426705873788984,6.919669747981048,-2.4020663732978296
-36.48306319109493,-30.21084982372883,1.4536823010728372
3.8760029900411874,12.424787732616814,-1.8490963748666591
-6.7325312034147835,15.51666337771655,-1.5611842539911167
1.285907601716673,-10.060810483375324,3.008905070331371
-14.939523522199666,10.978212546031516,-1.9409055351459605
-20.043227127169423,6.796714295822188,-2.215701548631284
-34.79492081237384,6.319821603587378,-2.826894370998552
-37.46778358191423,-30.25894538871709,-2.0698390279177463
4.646512757817512,7.830267740569318,-1.9860171104669582
30.34687689175774,-7.855690504838571,7.647955267993267
16.97885280409291,-8.979433727024743,8.094257426957942
-3.554276736072966,27.80830022263041,-1.2048647377847763
14.10681494530562,10.291320537841644,-2.262562001182102
43.60802996736242,-6.819627449643526,9.06149521360278
-14.615867000223265,-9.345865309661404,-2.4647062224408365
-31.580754994318358,-33.46430265862233,-3.1103846837085256
20.203213478833394,11.894337761384175,-2.454421647274644
-9.1542551149921,5.898257922497007,-1.9584817848011749
-4.200140303417527,3.0077748244500464,-1.8842715369406864
25.218440736710626,37.106845726644224,-1.928212578980248
2.994883454115153,43.193730340488266,-0.26567305310799777
9.720129189043798,-10.630011304585423,-2.2270567605537464
-0.12557927866561064,28.502984807009724,-1.2250101563256834
2.6414168268669767,10.745772703049337,-1.850204465712711
11.73418980874435,-9.306888768796405,-2.3156287421785913
-10.656769304603598,26.31121387803555,-1.2200323626652234
-0.5811638279728868,-10.193157985319585,2.4909244316012127
-18.619965809208157,28.346934117420403,-1.0408368631242157
16.53660210608042,-6.295314904556089,-2.5138489787927507
-31.93087456740573,-31.432445512462557,0.2749297425843064
13.537360356896635,-7.590232378613692,-2.3995960697579264
-6.554199258084716,-7.295786616143362,-2.1392099411393826
2.516390860515551,16.091032664943462,-1.7050558016861737
12.695340930371255,13.126020407037116,-2.138611433084975
11.687293308128629,-9.269693144557309,4.625194876056942
19.534163847445278,-5.313288725905482,-2.6230457667802836
26.66139624120208,-7.959542697721795,2.912930946848287
-9.448699648429317,-8.223386658270215,-2.2527347868150627
11.717314088260116,1.9383303739307567,-2.286728241106005
-17.6168964228912,11.65929325184174,-1.9498918601699433
4.429357853025891,16.284415642259475,-1.7667660808408407
-9.005713864161219,13.350296589326483,-1.68592066621521
-6.019753715174432,3.0896756394729925,-1.9172759968877087
-3.592338682694968,-10.593657023251684,6.067672908706154
-7.278509722176579,27.129561860274972,-1.207204472409423
-31.99054132961266,-30.727364160157947,3.545768317420012
30.619099105523965,17.02876642311011,-2.368345043877996
-37.27739808659726,-30.10519024883791,-4.422613141776839
-17.858994018908213,-14.788653668746797,-2.715540854036831
14.767198673731533,14.89789801870912,-2.1960538004826877
1.0112159388403905,6.466208790735525,-1.8544981745878462
3.058961764953157,5.154938956629117,-1.9395099410584804
9.587061709675426,-6.688976239218148,-2.250792546935244
28.585365063464074,19.797548477052473,-2.3504866940130267
-10.616793874615977,16.162948932652746,-1.545812117049309
-35.05569945198623,-29.761553715428153,-1.4112555820516568
14.116563515922836,18.2539532010404,-2.129870885137281
11.697086091582323,-9.045857461365038,-0.6355053901578339
-10.00802553514617,-2.9501365642893416,-2.1420451162740486
-0.8350099912898581,9.22102198135262,-1.7826927466245666
15.158979044028369,-8.745671277806258,-0.9674410974121704
18.25496049903015,-11.76201275098148,-2.54324946194379
8.711759634763098,-8.635331317396721,-2.2060313518308705
-2.9285900379001206,-10.267670966946307,-0.32767392311979493
-13.064142029755724,-0.538826659130927,-2.1862135671677825
-29.049648360004934,10.249984209299019,-2.4624424443427957
-1.213565931249764,-10.209373723334199,-1.849020088860686
44.17418252967441,-6.353844581617781,-0.8216094536687784
27.230804316153762,-7.766889151495001,-0.5213080437516279
-28.663794357878796,27.723303061164778,-1.223802530432121
-43.11759486857567,-31.455505111093323,-2.9503809943776975
2.400475344162128,-9.913435586439435,1.7054524875459085
-13.184768147454887,11.844589508533103,-1.8555145506533113
4.452290660028077,-2.6420074049508884,-2.033635631988903
-31.937221285801225,-30.67614950935387,5.737891233101864
-14.015172591205936,15.327105245490126,-1.6601916826641414
26.62573783219363,4.740936596116163,-2.4961995559384436
21.374941030445008,38.12271678952196,-1.878399321349072
-9.985346189396294,2.7160122003031772,-1.9924436965037322
-33.82865338102211,-29.44173349049024,-2.479083395288944
32.87056492528252,-7.6534180106554315,7.79660209916587
-12.38902894268838,1.3186891848476148,-2.083177202135885
1.875463703573035,-1.9525625045032564,-1.9317068888167617
0.1325223297177055,-1.2873506931385568,-1.8617182189031605
-12.023515807695897,-3.7052192027472817,-2.262702519906262
-34.50805204606988,17.711470072878026,-2.1441766995296514
9.481913982529043,12.576899257370643,-2.0408565888812693
-2.634053832837197,3.904787608295174,-1.8501899366414432
-19.769732148093958,16.079358544276776,-1.7226019926859037
6.982725926847287,-8.646278331183703,-2.139866572694994
-32.48134301065173,-6.609840770611473,-3.4701880890506622
21.734420417125264,-4.501255542201042,-2.5994111226073806
25.58614257372718,7.884737568001826,-2.4711830410800313
-30.67367102598598,-12.86406983543265,-3.482217600617013
-14.993330353034136,29.462690158888154,-1.0145337422931626
-31.955284064983587,-9.84748005829012,-3.5006673735075395
10.275748964268965,-0.5858727601361463,-2.244996321204407
9.639891186197133,-9.323595525940389,1.9053205084478024
-4.930662937313507,32.25993147710817,-1.001530058743377
-5.775981132847502,11.013619186789963,-1.7668347372541369
10.378577412018489,40.092899642636155,-1.2709777586599744
-3.730372871027813,-1.673263787844577,-1.9030871359447525
4.893230435363977,-9.615457593382217,-0.46368493153343426
-27.764695396482995,42.268820429580536,-0.31031006125764327
-31.93324812619387,8.26634368302093,-2.6367752590339273
-1.9514321344654808,15.267806839166317,-1.6114000199997984
24.209104218690864,10.859026383099819,-2.448984305750986
-0.03493976150311994,-4.441754086524555,-1.8719048117864392
-41.46490371041684,-31.036570413831193,-4.140228037430446
-12.035568830957233,7.34313823039455,-2.0030282387866047
31.95817089058713,-7.440980744857748,1.0070061550298366
-38.09937482321394,-30.769017857687604,5.7353328975799345
24.61456270031104,-8.346866955563065,8.058852797691289
-8.522271209075672,14.890555459839527,-1.5835714422116773
39.219815786022124,-7.123517838416083,7.67498588528556
-9.258593396359661,-5.450857467154866,-2.2057305037847446
-12.699503833991109,-8.795376313360444,-2.3884338854236837
6.514950821913307,-10.761728971867639,-2.1034265969183843
-2.350692811196128,-7.222326988474217,-1.9521149244993117
13.582255151324668,-9.230730607711507,7.400292218707625
21.684860086723127,1.428165069592054,-2.5450939494761315
-23.549850566413735,-4.792313001486508,-2.814534319084992
14.109815468603914,8.541820196785078,-2.3433031754074687
-14.621231150060638,6.191499587714882,-2.0573660022146725
-40.33649057530497,-30.971481735130677,-0.31204834688431593
-8.814373709685098,-10.837360633126771,1.6359960194823244
-11.842895101230559,30.303259107018615,-0.9984818736306912
31.53582931121449,-8.163466565800153,-2.60395980303424
-7.490178805488465,-11.021177411482327,8.553283858541016
-1.9563908173785491,8.079464093289154,-1.8132295479009428
15.872357952707398,-1.2964229750281122,-2.4622406570384006
23.427304516429665,-8.266175837448333,3.84102378680771
-35.356227202981046,-30.016695473944747,2.5638402428806732
-8.730548675155353,31.015891610169753,-0.9888453882131406
-21.017191818714853,-13.439082602628098,-2.9215825755273412
-23.107719404322552,-11.053980296735077,-2.9999311498497594
-24.636643274141363,-7.924457779521678,-3.030870256571218
34.937587500113295,-7.235666116134669,1.9723168667281632
-3.821881822751349,-10.422251606478989,1.5771131902476427
31.72651720420832,-2.5913595159403835,-2.5445558263977905
-10.154952298520408,18.798884433426814,-1.4443193249621074
6.448339792099352,-3.01514433815911,-2.11174561349402
-3.0970042326220217,11.54362240589643,-1.6980070243560808
-15.012750425642437,-2.673146500196825,-2.3576709659413857
-5.4126534241420785,-10.54571558990204,1.3882232574580897
18.296447205584357,37.91015345358089,-1.8091292864519957
0.12278340082576236,15.608969521057553,-1.6341640744565429
-19.273561333697618,-1.5071091123722715,-2.504942988308614
-40.120898932115246,-30.805944462451205,-2.7962325138954167
-5.699363335782981,-10.463932526228104,-1.099786415806558
3.933178341019389,-4.87021186552447,-2.0255399206532236
2.274845654080274,3.4372340930412633,-1.918621839946485
-19.130405475767887,19.433759216353746,-1.5074627157792562
1.7634946613448093,-9.24516872010818,-1.9322443326235357
-42.33533797482613,-31.688092349746444,5.536163175061277
-5.955249152732991,12.851910773994906,-1.6588702897853962
-6.349331670637236,-10.69984514109419,3.1977903514756156
38.023492958649065,18.1892005274795,-2.330038401333919
-0.6782016375548405,40.66153715634864,-0.7486768713841906
7.89026838490115,38.09835026552113,-1.1940209254139758
-5.025433079493991,8.301267384224039,-1.8684055548616436
-34.111418542871526,-29.687829497972356,1.3878042028734316
-37.65930912431865,-30.413621229509474,0.29702372894131934
-5.972163233912874,0.19362404626235746,-1.9333893234853678
15.141737929847734,-4.723575384426237,-2.4523759729181496
-11.914060231963479,14.033397541609666,-1.6991181725895173
-8.532172170576967,4.247723056688874,-1.9567166082781018
3.506049503377809,-10.047215036054206,7.016279213945347
-1.2315375844615513,-10.360563963057182,5.171790145662579
8.300987807291097,11.591729927440879,-2.025564170144406
-16.78041723993571,6.153446879715091,-2.0931818701948415
0.5151948393396805,0.974161356773564,-1.8644337316063886
17.569435420243256,-3.1911467231217245,-2.5369402683638325
12.526759362468468,29.581952094974778,-1.7758508998861173
5.324761722016642,4.3002723607116815,-2.0304411849259933
-12.36968480582591,-7.282465694702491,-2.400059309968796
24.331558329499476,-4.419355020490029,-2.5889633543130226
-5.0346196102116725,-7.40802554443856,-2.0691520597133506
14.591185096854982,-8.902370184272993,-2.42834852235549
-7.053381777003502,1.4607738879469159,-1.945852661451554
-34.73923618556988,12.739018431617948,-2.5012086244575804
12.772317395235394,-2.8090679502965865,-2.351922515722529
-4.860594163493861,-10.736560562208815,6.96604908388733
19.24920221314698,-8.71438850337812,6.268362237490846
6.8465588237147825,10.918025512606489,-1.9925173269661687
-9.425952249577342,-10.755074866974155,-1.4971872028624775
-6.956762552192359,7.9933441795539935,-1.905752660818287
23.75805104453026,-8.056421461010327,-0.4618454375296962
-4.135316507129576,-4.718423927386958,-1.9453471414101755
24.41026086572978,-1.091415550884593,-2.558079735486812
0.5907311363730617,13.21210892467866,-1.7136336044975309
-35.62011985418144,-30.24073480097527,6.054361742291607
16.180892108106843,-8.813205072763093,2.617703206269149
-11.397006972567517,21.73177020112033,-1.3565029492548943
-32.4220271539917,-29.646844530780726,-2.969787044352008
-31.48626746583864,-33.364179680210974,0.8445594215015482
-8.621352313962781,22.884502201217494,-1.3518391773329763
-17.838869999125496,9.155909806258007,-2.0991875703706775
19.98538392287477,8.964470941775794,-2.5652352460355843
7.005886127228755,-9.603309775581748,3.3682963622149784
-20.041355458799895,34.04138934526087,-0.7272407898100773
8.047100793345422,-9.717796369903473,8.098581355537425
36.032800783189145,-7.462487663050776,9.457603735013368
38.64829954078023,-7.019713012046241,4.1123149558522805
-20.587800332880246,9.936219391221558,-2.1099822479189316
-25.993439657319072,11.385341482537385,-2.268404600278603
27.28048976065013,13.050097719427045,-2.417379078071729
-1.3666249513906104,5.962844856703973,-1.814793266180304
33.86997217262477,-7.44916136699279,4.926934481665225
-3.716464538526944,1.2602635044075143,-1.8856222514941992
-3.9724351286044746,14.80666079610272,-1.6049371877099656
-40.71972533352172,-31.265740064129783,4.103826519715225
-31.432483543849855,-33.307187963454226,3.0957814467481852
18.108857788985887,-8.739815862135979,4.645090537889418
-36.76011359212681,-30.440269376997616,4.996625936147487
-23.965448772915362,41.87367842659214,-0.29604198893450956
37.06712497837458,-7.2034852187799165,5.3646721689147325
16.157048767217027,26.48176657468763,-2.096987036992147
-39.510817004420595,-31.115608260904732,6.516450573794168
-25.46232703271445,27.168681745291593,-1.1427231617015001
-2.069121967709393,0.8463975468275254,-1.8577353622258468
14.518846794108065,-9.104589333811935,6.250738119827656
17.733998204403644,-8.558898667822474,-2.5514540237312997
7.876538468166729,1.0067281068623586,-2.1450978818489412
0.3025066297331736,3.703647345564767,-1.8419771942317429
12.256414809702768,21.859607939020062,-2.003304909206578
-1.4839911686239582,-10.317233277136353,3.6575684604004133
0.2898005221591053,-10.007759309163562,-0.18431856722992912
25.473950810628853,15.851856445184914,-2.3983695074507634
32.97633761473248,-7.252620667433511,-1.451125766881748
-23.1752686783261,8.498464769744366,-2.278355901386461
10.202835697063401,-9.394547447925273,4.6763535852521505
