-12.86118479363163,-7.690756425639324,1.0129706674206809
12.729709715349411,9.913345953805102,-0.09900088518159177
20.331902481769436,-7.0179924592475915,-1.9852755758908789
-4.881247363289485,0.06491837027291732,-2.4948904402736747
-21.781872425416235,-6.58303993383054,1.257880903909916
9.42720821272661,-10.422811673589914,3.4287718360658577
-28.428245814316174,-2.7704642141035736,-2.6363471114075105
-6.941083060680851,7.487351204366998,-2.624090307464913
-33.94754353948375,3.3787441888690597,-2.727059091085844
-22.658378823377564,3.955574752094561,-2.6937368832599726
-3.019719986458263,-8.412307366487212,-2.2971949110968795
-0.8969785771960657,7.334498395835815,-2.5928453485796927
20.844512878624354,9.832539200770823,-2.412824863199479
37.587576427483675,7.436515526396149,3.0628635616604756
-15.712363215427946,0.40186226353083415,-2.628004589836312
4.4577136926373635,-1.3572331529486592,-2.3814699481765778
-34.20059408630131,-5.037290462770394,1.9109888209595738
-16.730306654212143,-7.151370076962607,6.13477809544343
-19.398318557968246,-6.918366876072386,-2.1561159368289253
-15.057773669827721,8.796659872499234,-2.6962869263749645
18.608502381434075,9.34279425632893,1.9218815386600516
-28.48966331833593,10.623216304859165,-2.8064453308798347
33.28280895672087,7.868052082863093,2.7338457213693794
46.665230574937546,-26.498863286878525,-0.9879476055760469
-10.71204256493706,12.75739137199646,-2.785308063844852
8.818439948208836,-8.413134131946457,-2.19192587328006
7.541763734743195,10.411568639200647,-2.6393409481012773
4.676644723747838,-7.402035281943678,-2.2503555661739476
14.108699684953395,-11.03386842175305,0.7697743502952853
-4.486389053700172,11.666190893653212,0.8449126332996009
23.656221803983403,-11.575992132817296,-1.7803021862132622
27.18176562505702,8.580438506326455,-2.2785051974476627
-2.0370003154158614,-9.027797835216859,1.3148294071095414
-0.12682349164221657,11.277805234150362,5.2499010905615116
-7.593364417324985,12.018520680068212,4.0282598245969
-31.245767197496125,14.350450498438574,-1.0552073706683978
-27.797112600604127,-5.854875753296823,-0.17430550660155864
19.033293782182227,6.526032133546296,-2.3564449407020267
23.13332553651739,0.5441215843559705,-2.135787774783125
-8.008245317620627,-4.923197000198598,-2.416103961097608
6.525545726050601,6.049449753922355,-2.521354296423422
-0.12578921257966952,11.185831754520327,-2.440018667382815
-47.094669879880826,-3.4252898503518607,3.191906896800317
-33.79573859426144,11.203109957472064,-2.846082014141241
29.84882663346978,14.530388249494772,-1.4267655239401205
-19.111189241880744,13.140632385417417,0.42697903931459313
-50.07407000908918,-3.0247555611704455,5.875044109049202
-1.076198031140366,-2.683117616569582,-2.402339096458923
13.983730455430894,9.826986815464815,3.2907926684981184
14.160898896200731,7.10978036598359,-2.4499165698480407
-25.51638469434349,1.5939373333469695,-2.6765343650343203
-27.575027291455733,-5.808098164905571,6.146663206228496
-45.952416285685295,15.861462608642224,0.8949554816739761
-19.88425930806406,-2.9286856689978866,-2.604245126396078
30.11844026930643,1.0783579695358054,-2.0372459048243137
16.894854567553026,-11.31389367059544,6.304517857717436
18.5743025218258,-0.7032329061124883,-2.1768620131880394
-0.2788460859935025,3.8338841210217294,-2.534508014897188
-9.673172739693394,5.031397107012241,-2.6601798755270107
-9.226198440314423,-8.14129932890851,0.9835890529136989
9.872351709841551,3.796544309026107,-2.4434572876663005
2.9156221267625075,-9.647170584442717,0.805611764126219
31.893834694965857,7.95419138769442,-1.8170787716956944
7.064533434713956,10.549353603817863,5.167947621884222
36.28368868807567,-14.038984654427317,-1.6720550477260778
-39.16882871323881,15.155310970843184,-0.7731874823355201
-29.992396148756693,-5.552285031743968,2.43822614987884
36.125233526051076,4.417965458615432,-2.0118636366278486
23.7463447032521,-5.974071888386512,-1.9573511134075257
-6.849066935196891,-8.982726741463555,-2.319052118714357
-24.329945038672886,11.174175039465352,-2.8029124791349393
-6.962410145668819,11.325301109453363,-2.7292994304699247
29.440113552184926,11.321587687380308,-0.1935418015677494
25.400600545260097,-1.899889040558784,-2.0361097777129453
3.6292598565866494,2.292985417243101,-2.4668350315089933
-53.94662839934531,-2.594698391849854,1.6574951758181549
9.320552266927098,10.262445667023965,0.25522085860609384
-1.0180374484908985,-9.094689176779456,6.361561757435894
-34.385252962157224,-5.0644882474599715,-2.349445074612784
-7.867863342020748,-1.5566177302061623,-2.48679434011332
17.220039643624613,-4.784469962563788,-2.0930953978852895
2.762455974278341,-9.562586163819269,6.388949809446315
27.64966961724462,-5.52938457506714,-1.906065170447244
16.522541945415664,-11.36070848493048,-1.6028438769792581
-37.70848431961447,-4.611590430291935,1.1658668293914765
-24.917179957525477,-2.737363648856699,-2.624290545485715
10.498002727070176,-10.51958601003661,6.4789195890208
4.636144916612707,-9.828405506273132,3.516160108617164
-28.900735980826727,14.142355238246271,1.3828325328226354
-16.399028202010314,5.886669502517462,-2.6939063972653114
-11.96686895108534,0.01228896054747633,-2.610226362895205
-50.587698580334724,-3.055781616711147,-2.1781157158286786
-0.8333335744057916,-6.088847560394895,-2.3274047405176663
-21.07893409111519,10.963981607579592,-2.7826013758902453
-12.704312685470708,-6.184450666341396,-2.541131804957221
15.919688214296421,1.157870871592859,-2.267695167051515
-44.56799947408729,-3.79186375876321,-1.3726997084471213
9.731835254797371,-10.497737569007114,0.263531769313703
-48.78188009139181,16.170937204753905,2.8409427062957877
26.973466292134706,5.336566492100683,-2.197961531178914
-25.74705747227313,13.796101631343138,-0.8964429790993549
23.655471345872332,3.7812806153002994,-2.211109475405057
-6.804847601828568,3.5394685341455676,-2.5862385551118368
23.493262001441465,11.436503763443413,-2.4117009647771566
-2.1187145151993634,1.3814736655506803,-2.498461871897484
3.1689588862776747,10.885844241873274,0.347946080989038
4.46489440238454,-10.445418392092982,-2.187205905553183
7.505266202223169,-1.2155156722044882,-2.357402878013041
-13.671309214256807,11.527393227779344,-2.7648691486035215
29.127566483751806,-10.861077427753013,-1.718453398555978
-41.797273650227936,-4.073337892580629,3.876149178258338
-40.56208601929492,3.5349644339246966,-2.7523019577037813
-37.41727047167844,15.008060982339966,1.7326510345817205
-45.777532583724174,15.80109774594878,-2.67706828748737
-34.07135584084358,-5.018255396314336,4.892762640388894
44.85296786983369,2.1573159816408873,-1.929914547910095
-23.888009140137036,-6.269926441666874,5.705332285141708
-19.828230105330434,-6.79859557150703,3.5047945181387905
1.8351825343199657,8.624999599671808,-2.615958040119963
-3.9590008542903394,7.425100475437712,-2.609035011343277
-25.472967632966913,4.769765198555494,-2.7131305163423445
-21.731229438063206,13.421199430241153,1.7265589834550992
-24.899544913091805,-6.209844241040321,0.1574633820255285
-47.26809950605927,-3.437903735103883,0.290803194198882
11.109701312570545,10.048485066672168,-2.5046764531449703
-4.146431084945257,-8.743649440143937,3.2628404666220843
20.15969329421278,-11.777170312928634,1.290649354434522
-39.577703920575516,-2.390715993534947,-2.6802436608191034
-43.41305207323518,15.583745969739093,-0.849160386508814
-18.516945348307566,-0.20823055682051583,-2.6308812790813163
-14.787156734917188,-7.424206428791234,3.3969304219104304
-44.352384379305626,-3.7735191376585484,2.460636045613871
-13.549378392723057,12.612674564324584,3.3291304820075784
4.74436354547762,8.354955319561604,-2.595538069824655
-15.989740044365867,12.824275896766338,0.37734973950594564
15.664204545545052,9.629820487571877,1.0164529422430297
-10.30433256666226,12.271833553985854,2.276578604582444
14.30503894823416,-4.742045327282775,-2.141081606090678
12.795843398497311,0.6154481804250483,-2.303915176990518
39.16069267988423,7.249548409564461,0.7331919185883996
-20.05389035591403,5.837852594230761,-2.7062905630040968
21.834875547296033,-9.386403809804042,-1.8998468725634385
-10.953663461944814,-7.900187340706229,3.2949919534745327
11.976062420317621,-8.452906626909114,-2.082572466071989
-46.92107761698586,-3.412664136705065,6.095731160997241
42.4192376606564,-3.1728322563372795,-1.8281821196837624
-1.9654862312080728,11.396844117771435,-0.3549237282013171
-34.236826008966204,14.717769899355108,4.3643842431649364
-19.18178320557023,13.189171977262394,3.8922453518477313
29.305825459958832,10.451857027312036,2.4871371309172514
18.205855692379675,-9.187502588106875,-1.8822411649739132
-41.43067827685587,15.448657713999877,4.629130009575206
12.246886033275693,10.029730375160751,5.554656582789332
-13.442236776124401,6.577856280569762,-2.691428836493578
-2.2673583886456883,11.46027415920924,2.398387223090967
-20.214532451671023,13.536965935074734,-2.8492003769925773
15.894101193435251,5.017273704173328,-2.367920084663643
7.289825405111112,-10.648799035495085,-2.1577439278667114
39.687741681084226,-7.936759813353065,-1.739468348319349
42.93153118316028,6.862520905818708,0.2667721291560799
12.153491403827053,-10.768852842933793,2.715048156353011
-5.798153114543612,-6.543668584153576,-2.3618274256782286
21.215414020901733,5.01532135382616,-2.2822740482828276
-42.12735570825432,-4.105505917841591,-2.339812278247308
-18.336885634577346,11.016317359043065,-2.77175896884146
2.478859769238817,10.986078249070685,2.894605306467248
-14.305739324641308,-1.9279925963735924,-2.5960604002748444
9.759900461660482,-3.7763275390194755,-2.2826367352776527
1.8165701775863419,-1.9595355347374426,-2.3920817209588634
-15.22434612326438,-7.411201208414366,-0.10389729032814406
14.219959991881934,9.73452736434941,-2.448270969223211
-21.48077135338183,-5.078051795695955,-2.5850295307235847
4.589813841216204,-4.066899641444082,-2.32239416109086
-43.5975023521858,15.649957078010516,3.131219999445414
-9.46562941659909,10.465290524507294,-2.7169520603163986
-20.455453279790785,1.5300067979372591,-2.6578638507100956
0.3341777607709269,-9.333554544454628,0.2866232797461262
19.568881492138196,-3.6642361919016753,-2.084285204300052
20.093311828925497,-11.738390664304989,3.8909376420369295
-21.649394742518762,8.072619203998757,-2.705966712908081
1.693203646998817,-7.162455575329374,-2.2820003509962357
-39.46517381783604,-4.335584218956856,6.138528296973752
-24.988742268516198,13.787109106389059,4.771928397758818
-1.6927849249043077,-9.040330877234934,3.8759957517595423
9.719888939585028,1.1887018962991025,-2.3890873284889103
-27.305280994374026,-6.4549651827858625,-2.589732252487554
-19.336341562548064,-6.896262919437581,0.37794148471778527
-10.21751297904637,-7.956956066849338,6.222565709128247
-15.618656781997156,2.924564057096313,-2.656864737210214
-31.344575995446327,14.395831069663856,1.9067204786027843
-16.95738781123616,-6.047814391097285,-2.5577814440170057
5.5289458239618,10.62974098169485,-1.1059044630235988
-39.638298816507564,-4.354603469083862,2.695583771672968
-3.493807463955983,-1.9744810017495775,-2.4389761609339518
32.171418553655776,-6.024037513665886,-1.8093291313595419
5.242894602911571,10.714163952286533,3.538593217291716
-22.419178964566168,-6.476490126008515,3.608027777186906
7.130666675821955,-10.14688659246982,2.7051019889277605
-39.78619312232788,-4.370850913510379,-0.24559684611461818
33.19346159713378,7.846930377672535,0.2092889011905853
12.389556239415832,5.476696553425562,-2.4361739249602787
12.952665152982469,-2.7560006915887585,-2.2141989441393193
-27.871926975502312,14.065441666119366,3.6562727671490327
-11.050448647376163,2.9247024770918357,-2.640681318071643
14.1560344439873,-11.070887106296492,-1.8813990238761404
32.43783936541919,-18.419835497986707,-1.6031986018957762
-10.559543890567399,12.266893194181046,-0.2979784242420201
20.74785743752986,0.4880127175437705,-2.1727079187520184
5.61585006112341,3.8444303728912366,-2.482324479138814
7.953961123055984,10.431823773464481,2.8613650122104715
-6.727182980597887,-8.387678802026208,6.35522631293181
-35.63769935105813,14.804512581458797,-0.23679071921738878
15.412354202006663,-11.164151917518817,3.4226099630184903
-24.025291674192182,13.642768109319503,0.8479009986291948
9.065022856747877,-6.070529007082019,-2.2397913209384654
-32.961280785688906,-3.212229465871017,-2.6472955052322082
-10.278299729569325,-5.480302595853878,-2.540684761183221
7.692365951958892,8.062948497327897,-2.5743427920640913
29.250032301770062,9.629601340141434,-2.0816331781191293
-6.450185468402167,-8.459583479417429,3.1558866305514606
-41.41484656204025,13.728804257740187,-2.9493653527465025
-35.97294180104722,-4.8480937537239885,-0.6682436741919602
-6.5257666138854615,11.885412416022787,1.926347703811984
21.132086054510566,7.536711171380505,-2.348823553155565
16.466857722327262,9.574530170163815,3.1848840475825404
30.903547877981847,8.111306842055443,2.9490019302163257
18.19383187783273,-11.547309562511673,0.13222416560579098
-5.176247067109863,11.709869904505855,-1.3403455963118285
-15.179091855301838,12.798727460145372,5.103035500910687
-5.732144836621948,-2.4502054809087017,-2.44871141280288
8.18335262975748,-10.246326176609902,5.337612358164381
11.93486104369572,10.02138570329605,2.2140659895046597
-40.721797467998336,9.188322091466176,-2.821908091702063
-6.8508039713150435,1.1959755564031767,-2.5365703938379696
18.56286744181714,9.319882264648912,-0.3823935465553618
-13.670097035104575,-4.131453574047467,-2.5683103768207682
-39.342126136406144,15.222363686607927,3.3720776958797924
34.33643530474843,-1.2999955802662433,-1.8994613402038711
-11.005274672960056,-7.937411255546931,-0.4164232780588463
23.74412579502992,9.131119748302368,-2.348042999984019
-23.59634417783512,14.176061363772112,-2.8818438111256266
14.674133114492482,9.783160344415258,5.468319512631634
-12.403883576539615,-8.491299846762015,-2.5133730461089163
6.856522614779475,-6.8706192264500885,-2.2423301103608466
-21.84361679490358,-6.60170066428042,-0.9807307300722721
-22.71640196507094,1.6991190053740686,-2.667831251362538
18.025971205673905,-6.9746583737163625,-2.0234881681207013
-3.6733896723878487,-8.842652267241373,-0.17627974965990958
-13.59242890993417,1.5215035255513116,-2.6334499684878807
-4.9383181560697675,2.341859203053796,-2.544052486691504
-8.143559683582433,-7.185966941397873,-2.368955192981987
-22.16228503176731,-2.710355067566005,-2.614842574823971
-3.1337221366640935,-6.2097498697824065,-2.345273671295813
-1.140703389228154,-9.171049101314733,-1.428887059328312
-17.694712927841056,-7.055192430324658,4.155067560672601
-10.018572491461223,-1.1006251990919587,-2.590445212319234
-29.16095264708753,4.3562281138974654,-2.7214115742593603
-5.728852305268217,9.318752560003922,-2.668821675257863
-9.148228468350865,7.1544757111507185,-2.6828878094731
-27.7114517846806,-5.836833108315511,2.263763627481734
35.98962640527867,7.580456072473424,1.5806966409431435
-5.8626344437419675,5.5931809063108515,-2.6217460716659744
-25.310155392383464,-0.5953230472921008,-2.650470064750102
0.7272408620891259,5.846885104123982,-2.56857770056186
1.2389178108891925,11.067935096411079,-0.7528411454998233
24.629848485761332,-3.988928044896904,-1.9944801282077513
-17.327156484005627,-7.156305669154493,-0.5753255902924731
29.56991332811403,12.21269852221418,-2.1626340189452784
1.4748244005994413,2.5245459468533795,-2.490937889845768
-1.925173488112171,5.397968808349172,-2.5825672997082445
21.288302472451,-5.078740646966108,-2.0200451475585255
-33.79263586041007,13.554220640731113,-2.9104602649455873
-28.885254498864356,-0.32482639631220717,-2.6662666582463164
2.988154683687275,0.21733448679906706,-2.4281816148976287
-1.131884917669832,-0.5339200243514808,-2.448759166976873
-28.827865489633854,14.106696617873462,-0.984950134884932
41.01932158810411,7.07414359289139,1.7889484602867798
11.849512640745496,-10.761957284759948,0.09822022438403771
5.150555731803199,0.6941433149855804,-2.4191446727591748
-1.6742808910785343,9.708294070957285,-2.6613386621243755
-28.74330516610926,-5.6867203332487755,4.162734766003916
7.731853119707003,4.001485880491337,-2.4668674301436275
-16.21494614970169,10.572694401929594,-2.750109404422695
-14.255975675235778,12.631802588901765,-1.0529191535131865
-7.59209379692233,-8.359316900816275,-0.34655491701711993
-41.21528362015403,15.368341425123912,-0.26990628623860363
-33.98158645242039,5.503489121685432,-2.75176678181791
9.490194435555013,-10.49244984469607,-1.8331402738141653
-23.269474789678867,13.593885764577479,3.1561240351305435
18.697833171204184,8.819931590431644,-2.421166662708189
17.087565375171316,7.3040803278627555,-2.407864973937046
11.438741228549656,2.4093296893655247,-2.3998881537218484
-35.791107111397615,-4.823587789547467,3.333371633778388
-16.824832761621515,-1.4314637037531301,-2.6107311932013495
-33.77965151684705,1.2789154519124495,-2.7021655017749087
-41.68711681544399,-4.062602598862501,5.950574681061427
12.48173003405348,8.321497791119924,-2.5082645993504586
-18.490868312952767,13.051166386265123,-1.8091920455877168
-13.110249481925461,9.496590525653236,-2.706737803751548
29.588089924907152,12.647429918457991,1.3829352451329289
37.38103712953555,7.395652750926563,-2.1064596576788994
18.38074367587018,9.22844315581832,3.960065722882924
11.45081745427791,-10.659192610921645,4.640971802216166
2.789536037280149,-9.656327182024667,-1.3023541362311437
-32.62218141306945,-5.214591601345269,3.4585949523091832
6.181524789292499,-8.796264621114375,-2.2071834103945664
-24.00122454798352,-6.299642282576699,1.9835626882889454
18.69883831336219,-11.548395769909789,5.361990208462415
-17.084714081979005,8.101947594293488,-2.686334505280243
-5.958231697602031,11.867302831682945,5.216124640261598
-4.852871858649842,-9.329946886301824,-2.293884688995473
6.088848822672779,-2.7064857826247724,-2.3381363582640455
9.162191556366334,10.340248673151972,5.426821276024472
-8.699165314752559,12.061451855280268,-1.7416257680348652
-2.116619659694422,-4.463351717017412,-2.373548537036243
-14.733709957200377,-7.397372337705533,6.243589989315666
-17.540646633628796,13.03697203374549,5.048741590759891
26.048906869523318,0.2929305174248091,-2.0823930301520304
-0.40391574966094934,11.281330248092091,3.198663070295021
14.884042097296383,-11.062467913784094,6.507388973360589
21.09173144150857,2.8425445998365464,-2.228070357934842
-29.942980193655618,14.199620501806175,-2.6490410670748514
2.77497537086759,-9.605923617779956,2.833179485796499
-22.417296438878207,5.933145749702812,-2.7157667493463076
-35.764387514895056,14.857141021273895,3.0957521747850314
-53.81101677363712,-2.5881758105953514,3.641713271985931
7.37673315675426,10.451341845191958,-0.3925905859109702
0.9103480209346095,-9.341249449807128,5.704021842997136
-9.34247555059462,-3.4617801904777585,-2.560727059081891
42.83398979239509,6.846929106158617,-1.8642853059367508
-11.505490440146781,6.165011889286703,-2.6797896599467284
-39.88537893236239,-4.381747316367111,-2.218109448374791
46.61302907962485,-26.46922065422421,0.9868424499459069
-19.322749156496002,-4.819014282764816,-2.580381249183904
-13.509457210078995,-7.634698500256534,-1.048952130302885
-9.263371900539086,12.201040352190471,5.165222086983417
-28.307918491878183,12.582834812498767,-2.859301650700075
-4.843477344887257,11.727236616419296,2.9310962111376466
-35.66912206896674,-4.807147796245622,6.017882571022848
-32.74016430784637,-5.233450935257245,0.6103933487521213
4.805885972073879,-9.872417359917787,1.5599409698008722
37.30747299218052,-12.367231478047568,-1.6891985300843981
-18.661563245747757,-6.914894196684911,5.903949204617796
0.04885797311355529,-4.344705367870646,-2.3568308735414147
9.300204876035899,10.240042059651085,-1.7923753794688937
3.5639808737115737,-5.797296582452185,-2.2945388375665936
-37.27950127020896,14.952801778472937,-1.7262714685029956
34.43510296820434,7.695524422545431,-1.950511147910107
20.20488900512966,-1.7608454355763263,-2.1232809708361535
-0.2363537338759479,-9.241165570890866,2.13551657340998
15.535962753200344,-9.5950049694972,-1.911659304549929
-28.541044094859306,8.68984729308497,-2.7537243093132964
13.342419760051033,-6.529011583290495,-2.1103505396259608
-32.39648087726924,-5.178513814164202,-2.6225410295767038
15.94601056278197,-11.254962910866961,1.3193695609760347
1.7940198854729312,11.077271252403149,4.729016594900969
-30.178447604765143,-5.586727452056315,-2.4533511676671114
-12.413055432184514,12.438575952119226,-1.6219597003407331
8.450668014913175,5.7850555898306375,-2.498588625315294
12.449669878148933,-10.761476613484255,6.464097997838271
-18.014607491903288,13.04913007695449,2.053134262162113
-7.7951598925865015,9.518345084539565,-2.6835386858765204
4.61452774777442,6.370455781068739,-2.545204274462603
4.502644009410782,-9.857101022567186,-0.33257322351353324
-14.705336880101353,12.711271903391848,1.794090437807419
-20.260164468713146,-0.9744634229304593,-2.6281907737953425
14.579015978650762,-0.19389428297258524,-2.254300578010074
17.43028916295662,3.8953046276474153,-2.3141930684881986
-2.1384712815545033,11.551618380977924,-2.713901684170245
-12.827720382460955,-7.670745311626832,3.0684517230349244
-48.683503849544145,16.138325996937034,0.9442169223318524
-2.1139717806294844,3.345923120008308,-2.540396894747154
-39.25515552866995,15.188712779780586,1.2917453678623378
-20.359959922543048,3.8123641376142046,-2.683936454282971
14.580686838640581,9.720860248517619,-0.537799184543821
1.7539907719734287,10.83010936093374,-2.6767149974809494
-32.63497463591748,14.5062059250896,0.21913954476918346
29.70068922869995,8.186461091497959,-0.9454823395373391
26.661406987048803,-15.13968687353003,-1.694874519047039
24.584303210678147,-9.86075994168163,-1.7905421895631033
4.17976110636738,10.802572586767115,1.9367065010013438
-1.9765075169967363,11.46075088756529,4.901094869373142
4.46947004324164,-9.784477218605554,5.497582453175295
29.048285972594634,8.39151770795552,2.790778700427607
39.07919832636129,7.23446192307659,-1.2196885064160807
-30.063725341355067,-5.565489712237852,0.5628725886727083
6.335356390449513,-10.027388073262408,4.491912402315802
29.55930668729166,-0.7560142119228549,-1.9987985734918383
-25.637463417449478,-6.060693305763085,5.072328725321723
-7.924023565689617,5.739876058249432,-2.6432082290640424
27.170746087405714,10.448872210184774,-2.327004592345403
-25.850830755155478,-6.111133319045487,-1.468408896687627
-0.33506538219673626,1.9428718805171081,-2.4945999002869534
-15.144230526061596,-6.473401788809035,-2.546432680427725
-50.46856589627458,-3.048585332315597,-0.31023959130435
-50.19241457297396,-3.031904238673189,4.019524886163103
-18.203246267138343,5.299114862902194,-2.6934996342245463
-17.04043718913134,1.69600719597284,-2.647685473583408
-5.437097873718162,-8.566640054311788,4.722923247213458
35.64457603236483,2.592501546675311,-1.9756196410960059
-6.177291901125234,-4.6899731962642,-2.4048088438115434
-34.036890805193366,14.631821502060955,-1.136994131398563
16.93487849768691,-11.34069629786894,4.445610801198374
-2.7084008176760093,-8.895505819228456,5.496144298820193
-7.407113930953709,-8.359506513832942,1.5867881762448255
0.12403262709499187,9.326080297826946,-2.6428197997014884
-32.7424258046107,14.553967836883453,3.3072185147738336
18.09343515458862,-2.4763088320238493,-2.138741004040736
-20.312801604770286,13.244635031872264,-1.0421853715072826
8.015741550713653,-10.292999313181806,-0.4003716920218612
-8.493755765388268,12.086552409995653,2.0987481027845174
-6.3140352616992566,11.841964159408448,0.08234575227341172
-18.059271293892586,-2.8867390326576965,-2.598264647182701
22.90583767115731,-7.593164960198701,-1.928997421757469
-17.925848119152356,-7.923966663072404,-2.539502250568505
-12.48417830887582,-1.838752630206903,-2.5906393307488456
8.69183516864443,-10.351447197403036,1.7513864107926236
-10.979775347559013,-7.919020198670869,1.417259420440696
-3.046110556360465,-0.18400221598961067,-2.4732554630753434
13.761565693798412,-9.21563961252255,-1.9396668340720051
-33.690903298224676,9.360786512572043,-2.7951551874909453
10.887598705442254,10.09325259135151,-0.6380640572138012
-0.00825709064988493,-8.040673687791369,-2.2783616553932404
-8.580194709038635,3.1993801861906155,-2.594755757790006
-46.04041992294693,15.891838952579654,2.6924419286448105
-9.204566440435446,-8.12221101347318,2.835846297779359
-25.697737120240404,13.769674200174748,-2.690937869807847
-12.129174922973528,12.45614854537195,2.2527421861833448
5.860434829873457,9.754813677010661,-2.628880845147094
-9.24920120869416,-8.161597225597433,-0.9860413382521711
-45.86486701827155,15.83124310020846,-0.8932503983917097
2.5071362371555086,-9.552024877155905,4.59686032411343
10.558783780291458,-10.580492025567846,1.9368121204228614
-35.89207154243259,-4.837194823138328,1.111458897717834
-5.7550872395305674,-8.5939787633104,-0.9546543316756274
8.070668897553684,-2.897083892954183,-2.316443500726709
13.644038737289335,9.840585524918108,1.5527115258071365
-26.75280344698605,13.915183930841204,0.5551553452839207
9.767628309163332,10.238187378198045,2.0103228765151897
37.47456576128441,7.414156926727968,0.23440105297263328
3.053766525951736,7.351083849696692,-2.5756126435698214
-27.977098772410454,-4.4720842681038775,-2.615057940953438
-11.288307954487525,10.002239123591773,-2.7124299070903732
19.133777178927655,4.771885447650883,-2.3094622163875713
10.645417013074233,5.676046430409187,-2.476746074793469
17.383388679412636,2.125915966299544,-2.269186881823262
-34.29264013322267,-5.0508476154070605,-0.21268975359868506
-19.75084307473084,13.226449364132408,2.1940044785815065
46.0807708847691,6.787081742183224,-2.0018205938717086
3.3620068115070167,-2.7649103578159524,-2.361131875842939
1.477354761783916,4.280060590260114,-2.5284279748560547
3.8324022295715685,4.0170296097537115,-2.501869030127275
16.855395508686797,-1.2607332312547843,-2.1900930670756638
22.712796050424966,-1.1391897077782582,-2.0990177325649677
26.856984750144523,-7.108190113585663,-1.8779841707227052
-4.155712818566717,-8.763221988998666,1.4995361732833627
-15.576689381016442,-7.347660741649457,1.5896486426222112
-3.3285498413271366,11.52219074426074,-1.4045828770940103
18.9029859039404,-5.252065043511878,-2.0539313816142037
18.6822816179757,9.37983669065643,5.647265159109204
8.038419363004307,0.4855657562258111,-2.389012120263894
3.1391074175654152,-8.162784352997027,-2.2477695793445434
-43.51815732757784,15.62147502829498,1.418978730582364
12.540294841463309,-1.0928800908911658,-2.263844348876194
11.64650119825,-3.8607540172529293,-2.2066375885509673
-7.58858812324594,-3.243742218993442,-2.448260152224595
-16.78485768582394,4.222710808948902,-2.6760184178177395
39.24267610463286,7.264725434428536,2.69779214480351
5.460066484754957,-5.889777576951198,-2.2757048409515788
29.77241770020314,14.043910061298106,0.20198797927788817
32.004070075838094,7.981683638956747,1.41759818661545
8.629965447029667,2.4930389330412255,-2.426649308400756
-43.33445922625641,15.555533925115057,-2.5451698930835076
-8.402820155058095,-8.182246312794259,6.176763100611423
29.22632106141407,9.621795202030105,0.18880112394827797
1.3915188933112195,-9.447692799390891,1.7174411122459294
-36.05432471587867,-4.859061775278531,-2.4592282130845105
-8.142258466179245,0.10828833505561314,-2.5248103670800193
5.409630119792795,10.719664497029743,5.410864816806552
-23.255830898156653,-6.410051744329474,0.444102045453874
18.914067635512602,1.142516101736616,-2.219132209944316
-6.579690554807653,-0.4785540982306953,-2.4983779031175284
0.19326157567708727,-1.580279343138045,-2.414618430703828
12.224819675431124,10.011658873642613,3.8551255414369656
-24.572431945131623,9.507632974291136,-2.7583548611946274
10.40629821220779,-7.934498627687118,-2.188036141289694
-14.825202795368526,13.13617807140602,-2.8140963186278136
-2.445033989375434,8.09009499679472,-2.620470036091809
7.939984868921122,10.413493558129959,1.2086818224783917
-12.848604938341063,12.56284290606612,5.091806218078312
-17.43926663298389,12.961622004707518,-0.40002007596394595
-44.47538329064917,-3.783983935715326,0.27388689875460853
-21.06915309226104,13.37222607144756,3.233408179191706
31.220892653656804,6.176898726492576,-2.151372891409293
-4.3500814820961,-7.446297043664342,-2.329665081749978
-44.26017688827117,-3.765674086328763,4.099956671716749
-30.034342491775764,14.242946515218623,0.20396301308196688
17.239603532786415,9.465521702824157,0.6035725141840196
-11.319955905576673,4.540432436857901,-2.660333043213128
-15.913376980606307,-7.269101875610208,4.726146907414909
15.486222960933697,-11.217659774645059,-0.35203703327674923
-13.547214175737686,-0.48504325724671876,-2.610070459148252
-1.6151147144703188,-7.590723813690005,-2.3022627144826795
-32.54358256280781,14.465582261451429,-2.4074111240365528
15.20975927132834,8.351021890015582,-2.4651466707505962
12.705448084260944,9.894452047521161,-1.8859603035623684
-0.40221638240164787,11.233867074692519,-0.7598716762428499
-9.247333368683304,12.179915563456586,3.5327705811650376
-23.981920612545792,13.618139840713205,-0.8463703463907004
16.187236018990536,-3.444235849251152,-2.1443701193469518
22.812438873288873,-12.954049331714119,-1.7733513121083568
2.7444438265223288,10.908892685071585,-1.317389643459809
-10.677038916239837,1.0626684416978807,-2.6178112934569158
16.008397409282892,2.963523983776625,-2.312966728074952
30.60542696670902,2.9826406005652206,-2.0786617995505834
14.07711284988498,-11.009165579550222,2.5389219664847857
-11.183946445067908,-6.875510103017113,-2.527748407399666
4.76695505618666,10.72433813173304,0.36017106194590437
5.833181249206411,-10.032258919456277,-1.2149181041696056
-25.297723199647862,6.3643655011249844,-2.7309619922082886
0.7882104169164192,-5.84853529965951,-2.318122921356434
-14.1055346521956,-8.201556688658313,-2.5227547871760763
-9.532408155530945,8.873407945016625,-2.673652592394738
18.230452181095625,-11.570551833897339,-1.4595921718561842
-3.6058898273473416,5.865467159763325,-2.607500009287182
-28.941693515569895,-5.725970483996494,-1.2679632319458134
-18.598463810069315,1.3911095330607697,-2.6496773057554983
-0.3482082215824296,-9.197130555242305,4.703765352539522
-11.787148093001198,11.524993609308538,-2.75636829562834
-21.028234533345746,-6.63796001329862,4.527058848242451
-25.54527505554344,3.1773444360303826,-2.694959558968288
17.320085745068948,5.702062793687496,-2.3626928014624005
14.920851119977318,-6.198377901889426,-2.0935117842374957
-3.6967751386250742,1.276021270988652,-2.510238829577674
5.348838234156761,2.286361062284034,-2.4514049563463485
-20.88909043837448,-6.594036547586783,-2.5653905836783117
1.924377201543383,11.023244500322587,1.310496241376077
6.026659996424571,-0.674609703138295,-2.38210726070445
-2.8690018768605485,11.50380562148632,0.947741893037594
-11.17474003446101,-7.852984819386765,4.981696245793949
-7.120317731584101,11.907245148212139,-1.2805434601864727
-23.935697186515714,-6.282443204415375,4.137666500762564
-19.86766649618731,-6.812117306468321,1.938575795328667
9.134509789002493,-0.6832340443321223,-2.354291528233032
-22.36876079823353,-6.461925241320237,5.378746605696072
13.754176605889857,1.853658176176455,-2.3205230427403243
-25.75520514632038,-6.0885274364786515,1.4629770598505603
-31.2082268074335,-5.382133813235276,4.103415304685907
-1.245890912365329,11.340871017929501,1.0530557724278464
-16.359518946869485,-7.231584352228964,3.216792652868754
-17.541570671799448,-4.604165928532149,-2.5765567661681894
-42.04440379905311,-4.097421870115445,-0.7776980772472064
11.859641270136198,3.904392866656396,-2.404034314808031
-41.879587486712836,-4.08135975716547,2.326050884559627
10.714736064718938,10.180320297268505,5.18624558419013
19.53338751067862,-8.397037233002125,-1.9624546444834845
-39.10425307266982,15.130325186327404,-2.3178333825410258
-8.496317903243627,-8.689580295286474,-2.3399616669882692
9.126741021398537,8.67152921983747,-2.5845890791736
-24.526842347863088,-4.229870166826719,-2.6056366365005945
3.3908696309766366,9.093736903267839,-2.621831202919438
9.673627318153034,-10.434948626600344,4.992980714083701
16.54614464494557,-6.169720983035144,-2.0681093937583186
-16.037556760629087,-7.325826194588924,-1.4094050215589047
29.788892796058494,-9.470749100238702,-1.7279364581596814
-15.309870172818803,4.661372353323068,-2.6758686766588187
23.77740684537573,5.313752517375718,-2.2487814613587505
-5.273013772893306,3.9191333436344986,-2.5807320804692746
40.95234633176066,7.062593119548561,0.2549930677306812
-32.55430409610996,-5.203741545597709,5.0972077645709035
-2.154763307277667,-9.032013294332712,-0.2849645858547081
15.631722286523864,6.681780156318382,-2.415188656297282
34.54685988395347,7.720499752961313,1.0863696427944127
-40.66884158467464,5.05842733139121,-2.7703093645957146
-5.557617928128358,12.166629484341712,-2.746052640946293
10.90669341322728,10.110954172209368,1.0053399411035675
13.315847330223367,-10.950936827497753,-0.5290978992627962
28.41948987362778,-12.217006112294582,-1.7100256625496923
-23.311502481878783,13.618438086960273,4.855413358267212
-2.717807201276685,-8.92640026421297,2.768113121455843
1.7615950420543447,-9.515804043364176,-0.17816106268848705
11.387769253841569,-9.843571251641269,-2.138516149736409
3.7510616954884433,10.867241741657313,3.7198180859720162
0.5741968088616779,7.676734517068899,-2.595632248596629
23.459832010180786,2.286269278717038,-2.1755918658547486
-40.398182357298765,2.026223167425623,-2.734262432316159
-15.598952672273827,7.164234334079339,-2.654000894502914
-4.060075858708114,11.841286560558913,-2.7304378682019244
-4.0768466021024246,8.924953588700905,-2.6506405179407295
6.17575064981111,7.896760040709032,-2.5765809079451083
-5.487411407053853,7.0463751215784445,-2.649462488658183
-14.114028157357605,-7.525480593468027,1.8732270584936164
1.1349311178091908,-3.310047659245033,-2.369283759098964
-31.316802535008488,-5.400858654549835,1.36579893345569
-37.476821129832,15.031946741451751,3.2277682985551395
-14.43409834103192,10.187829792317563,-2.7315961325770646
11.927451458184937,6.935126650466752,-2.4813255460266608
38.82019154199377,-9.26131545539968,-1.715232217851463
14.516611175332791,5.582556128861726,-2.404697136566473
-39.90451837606127,-0.9385987210299506,-2.6982051338204918
-37.35809610701839,14.984326154486032,0.24698123795638757
35.35392758272,-15.197990931305034,-1.6538835911429004
17.154417399606324,0.19290837769730124,-2.2228778053716884
20.203638412631044,-11.802842784056073,-0.43076454063070657
6.707391771141943,10.568103120669395,3.713258109987385
-39.539596351711715,-4.343760165802942,4.658484065739058
-6.89782750946644,-8.387448441455165,4.57642872925531
29.669703793161585,13.115236846677153,-0.995534113630387
-24.094131198035182,-6.324027649241134,-1.0705900289505295
-12.149121445067864,12.47663277812054,3.7984844737923704
-12.569064397537222,7.762649619603187,-2.6568258760002736
-39.71219186050963,-4.362721246974435,1.2260695290335304
-6.141370628609907,11.866635812860588,3.60954808327074
28.386335989500182,-3.88501873298332,-1.9367427965402413
-14.404773083546994,-7.454939354522977,4.811665641710787
15.378942288975287,-11.139949536231171,5.129937647905365
-21.414451043887603,9.518697044535033,-2.7445200338972997
-13.948598477143284,5.201148820770878,-2.677291906636025
-21.00700731648349,13.332783225337714,0.458052972446318
27.1240364758889,7.119292047622555,-2.2416450711420817
-3.4808379371531935,2.722228742096973,-2.5392221382229407
-2.515780761187957,-3.0590764114513243,-2.407104571590982
0.970554015020459,11.13665955612564,2.7273759640685857
10.900055255079348,-10.657630341514935,-1.0304985458946219
-30.11312372597101,14.280306311104052,2.6640935836074626
-35.819386386663616,14.879988497510865,4.5425021610453165
-9.480386145522218,12.17374680398355,1.043019118364043
12.767150070027146,-10.499688860709211,-1.9358973929872874
15.351865943796678,9.699389442370816,4.194998688237094
-4.50666127933204,-5.762542033449552,-2.3670364019084555
-21.63699101631346,13.362997815100172,-2.347259596515374
-2.0927538937718677,-1.6297459886392835,-2.4338860399777027
36.44106250087331,5.825032239720841,-2.0400178062565413
18.74538239348512,-11.577141376936181,3.406464308953925
-11.927762215648837,1.7818366131081431,-2.6305646224210344
-11.166007824417287,12.345245174771868,1.1252244159354519
10.813919584018823,0.2543554340194618,-2.3593949481323824
4.669171675268978,-9.02198599772222,-2.2158062134330523
-26.87050095304286,13.97640302693434,4.682911734681523
5.23929918895136,11.048198916545106,-2.667084776668043
-35.70987870848277,14.83449712660545,1.6618933992828586
10.886976593574603,-2.597301058640491,-2.297810002391524
-15.826170499185528,-4.9958300955151556,-2.56594690513384
-4.015097104398882,-8.742219584886115,4.768622106575845
16.013096938875464,9.575543012026571,-0.5725911608586531
-22.433329062155998,13.477352550126794,0.4817943217596398
-41.14417554852379,15.341826670719518,-1.8872213541984628
-20.527182450007643,-6.757892832069095,-0.3978548238839619
18.784454881993724,-11.601272531687659,1.764853538367883
-12.392598321317221,-4.765738702759257,-2.556444431155912
3.038528224812181,-1.2187531671787604,-2.397046820430006
-9.468450805413049,-6.6538997962117215,-2.5242348845009697
-11.66446783724012,-7.776633774113177,6.317454564844761
7.972696428906912,-10.237725149663753,3.8494216224966595
9.286966687643886,-2.0954782569666164,-2.322758622145214
13.38369238222131,9.904735280253258,4.717889458876891
-29.848103491446345,-5.52557312925371,6.231900785543403
-4.773783127382831,-1.3790584988445065,-2.4630794805818446
37.530896576326406,7.425301699030131,1.6442644206408268
1.7267078895994172,6.863493026918845,-2.5814148931202574
1.7858752647397598,-0.5437426634956717,-2.4226078880507793
-37.48537875293159,-4.5843055495860705,5.838896460319842
8.155657202828843,10.428411306889378,4.283600715482224
20.516604652741727,-10.353611581417073,-1.8370267318406328
-28.849201838326827,-5.707671464499787,1.2639110832371654
-37.79761615025296,-4.622490881599468,-0.7010327366987789
-32.8076856145129,-5.24424408345898,-1.0196250898149621
-17.792329006926956,6.8842568913579,-2.710386679460975
-21.072721312008916,-6.652003106522556,2.863250873053999
-9.806092764568028,-8.030814216381296,4.27366207625015
-5.317234469505119,-8.609516819520042,2.337638270629866
12.531237859462104,-10.83198385840739,1.3240645006533704
-14.277346636919672,12.65073877224521,0.351181472098713
12.918357300408985,-5.1815509713073356,-2.152020299121794
-37.619504600336505,-4.60070858156966,3.0295803660805096
-22.583689817716646,-6.524014297956752,-2.1697004972964287
-3.6613715779743643,11.598771324491782,2.1874312583950664
26.793641839974693,3.9463453811011466,-2.1648996571620613
-15.154328241866072,12.777847242651854,3.5649362531685167
2.46035699596764,1.512543847191288,-2.460550771358713
10.840361435344052,-10.599264154415533,3.3069457090341334
11.763752312546018,-7.067352187866266,-2.1218212973652864
-20.43727894203825,13.325798474214276,4.697611889007939
8.611337955249088,-4.75115772795788,-2.272017853451223
4.16513285631261,10.764765944470428,-1.351779772986073
14.96778306286309,9.715749455304085,2.312167874666487
-33.71527879124321,14.986399788076017,-2.949338422829485
2.6431715666746864,3.2955955239893373,-2.497026398504655
-12.046014733882195,-7.819198113559098,-1.3255406167867088
-16.481428301771533,12.889487716451072,1.6725222309366525
-23.97048439799931,12.844156628906111,-2.8470406232010266
-31.401650386177444,14.422044003202615,3.6176028179655195
-15.964025313264031,12.80365187127586,-1.1312511876666795
0.21958329610869307,-9.33558237223068,-1.093626091973686
-6.739163712841034,-7.60567253054627,-2.3475004639438066
-7.108766521583621,-5.96904236477041,-2.3857587572680674
-34.186315340093806,14.696056309382374,2.97454245354688
-17.716252648063104,12.504429599393918,-2.809736848250534
16.769032704570165,-8.985387153491358,-1.9917043197375939
5.341366556244685,5.201155802889306,-2.513755957254004
-19.787970924802853,-6.7847917229036305,5.103690384044347
9.13408888136719,-10.35128585577526,6.42596757607748
-2.1579716372171305,-9.563931594655115,-2.2649248355647718
29.159773525707838,9.204834117364936,1.6903435439577637
1.8050566268728754,-8.569842371018504,-2.2509322438361847
10.49447494451134,-6.4813839247978065,-2.2183029464848203
7.349650245037269,-10.190340035650578,1.315359828034235
-0.6466803308013933,5.88648504348355,-2.5816392238761514
-34.08648614255419,14.65314160817028,0.22766157348692082
-2.4919875974258967,6.725248837397564,-2.615968645203001
-3.0318856603078257,11.551285814770942,3.5428594230127133
36.041874278306,7.591460985442059,2.9442803896186778
-14.34006428761939,-5.313597045260534,-2.557004547780346
17.26640300067602,9.480236133144484,2.0621765286976843
-18.33727190276218,-1.5601426490569386,-2.6146006743030856
5.844409691387924,-4.570686808676354,-2.300474592449335
35.851455551266675,7.551353294980283,-2.0253359141598275
-10.605203134191397,12.319934979950125,3.7552825924209046
13.871773312024768,-7.877090073553256,-2.066971149040168
-14.957378118985618,-3.73030867421231,-2.5775131340331807
-9.710052788462617,11.85654104639743,-2.7561498335029206
5.8056849744766374,-9.984969158410859,2.5193262791187534
-18.822408192572198,-6.974494015559454,-0.8626966501527527
7.802516911793969,-9.2923232265892,-2.182171412573311
-32.78912660465212,14.574726284831554,4.649370119491053
29.42382678723388,11.315324395045849,1.354859387254399
-16.99801974914186,0.017455526164467827,-2.6281113617688105
-10.27513388690911,-2.4290404300225727,-2.5759820746387296
15.644616899898685,-4.763292168537822,-2.118984440219318
-35.730301557952686,-4.815392990648936,4.67151252396675
34.61120745191881,7.734880086926507,2.834949511634069
-27.712862389295992,13.985170443379836,-1.7159706046606917
-7.900162730653383,-8.280755961895766,3.091727988722346
-16.414883805811947,-7.256057910949848,0.550783280948402
2.1948232542589756,-5.923276887190539,-2.304019819695199
8.20178792881198,-7.08961360811528,-2.22568998573594
-54.08261671941751,-2.6012390911645493,-0.332234570032347
4.510596903113217,9.821089642569587,-2.636739049345364
-5.11277784678766,10.502845274593144,-2.698493485898993
30.800242599767046,8.084192129747567,-0.19539178020909242
-24.950704414433105,13.76612237409252,3.3373139742148075
-4.479548316617079,-2.9864891581730784,-2.4261152206966874
-7.589419843958446,2.3107388527172508,-2.5669580562561234
-32.69617295115091,14.533408500637726,1.9779406129235806
6.566302761964889,0.5586637445245443,-2.403662485306619
4.690487241898903,-2.663494397018594,-2.3514876474020485
-1.025777293855485,-9.163833477877217,0.39630201085462424
-15.593558667506942,-0.9419386778310165,-2.6120335021313807
29.40284674311174,10.894991573457146,-1.733370431024723
-9.638751453704081,0.24652246283317236,-2.604688412420769
-1.6812879451217093,11.415074627575665,3.5775401324000513
0.5614646018000418,11.19429968787924,4.088169518520682
-0.9476261983680708,0.7793266456920636,-2.475182961597584
-18.754125348613716,9.754757261426807,-2.739075328060414
-32.58926617787016,14.48588857193244,-1.0944927755112135
-15.577232623582528,11.87718517714439,-2.782981797996383
-12.633396020688657,12.973962241087898,-2.799841136927908
14.816578497362539,-3.5347843991271226,-2.164075918306854
3.2849596163003754,-4.218210737021505,-2.330762151929692
12.859007337357554,-10.842475418670304,3.8856252399386184
-1.3847528046397328,11.322976359154694,-1.6206480587316825
15.60762953140279,9.595040092009004,-2.373907678993345
33.83701827150856,-2.5309078840351553,-1.8757189371894458
-18.740346920084452,-6.944086862127259,2.5895695246900483
-8.091602834472098,8.108238699233121,-2.6462458736310195
-26.620115556376977,-5.94903838633019,4.2173338346638
7.511622682694067,-10.150018595340267,6.4534346091513015
34.49889943343131,7.709781596589008,-0.21690693680639928
14.708567191154193,4.249035628459124,-2.36712143081513
10.694723217086995,-4.753791263197628,-2.2534385013258484
-19.32035465179686,7.204167499604491,-2.671754791706059
-27.826052900200697,14.042291521864568,2.1069228907577107
-13.863269363523646,7.872261104190979,-2.6656218907786973
20.055661796078596,-11.716395743913385,5.365761058723712
17.42099806363828,-10.466076257705662,-1.87581793815107
10.139089817112348,2.52864736001986,-2.4139927974512014
33.13426680191044,7.832936735114982,-1.4632912924577353
-18.258380002118955,-7.021503156130301,1.0813751628481982
-9.987396268940007,12.195193619341014,-1.454915034746673
-34.01541330387622,-5.010015808217774,6.183464100555913
-29.906276069519812,-5.536342216621497,4.702454741356607
29.63170890462713,13.098441533668083,2.589757921504172
-8.087738804554565,4.46227089479648,-2.6173633881662575
-1.4712169939644941,-9.084107620687673,2.48597926540787
-34.126897396772904,-5.026435925262581,3.6113125806649236
17.017063759261422,-11.395732895374184,0.6285253182966587
-3.9236516211544616,-8.82713728164323,-1.4935411738584758
-2.9446327378784103,-8.88289400382701,4.079704217704336
-48.847892719590355,16.19282004451571,4.11368754407201
-31.302123155195375,14.376333472479294,0.6341389633075458
32.75300142620708,-4.892828686158076,-1.8306609234585265
-4.143123766190599,11.61685063560564,-0.3785076332914149
-12.234502941971858,-7.729823143483559,4.293184902951671
-16.960968052462476,2.9609522165011724,-2.662041580473119
-31.203536928873195,14.331055123200109,-2.321116999277599
-6.325745276085843,2.358741821776856,-2.556748655903813
-6.891214632401606,4.863935389553166,-2.6153082018935114
-14.931313778523473,5.98894748092728,-2.6898898683213264
29.46549169489286,11.748408397997444,2.535692543348278
11.312282361535011,8.809514991673618,-2.5785838584805214
-26.745737583245347,-5.977112278737824,0.5045307503772082
-48.61822992759795,16.116688034420573,-0.31428541980401653
14.798360328913603,2.552107686160316,-2.321790476636836
-48.48806891714977,16.073540342644,-2.8238318300661853
-27.758021073987965,14.007959569004768,-0.1907823128970569
6.669445088281023,10.508314685575009,-1.612673775024159
-14.408105178692578,3.2509938003985814,-2.656353162802352
3.7326990754823295,-9.706331627040823,4.382489415324468
-20.396770205655223,0.271267768673375,-2.6430900891433358
-23.236407380192084,13.574567984904462,1.8191223359321826
7.761205439003345,-5.917692598192879,-2.254649246655267
-5.477769150163118,1.165531216001285,-2.5237123918517814
3.6015517087477353,-9.719683784583182,1.8641709448016812
13.726534119321467,8.438606575984084,-2.491270116457583
-0.3677989688699347,-9.714575719687657,-2.2457896411722453
4.193577508241806,-0.10725570219121144,-2.410528393625879
13.525479803250763,4.823832084939063,-2.4010174905462214
9.449087881959628,5.03817384299266,-2.4737521321942375
45.513347130302165,3.87229432686887,-1.9631347255064835
6.520232347154974,4.702632797366516,-2.492622180479698
6.62518756263724,3.026332085045651,-2.455869133627209
-0.46138334035448125,-9.19891185724699,3.359451873445441
-14.138737550173731,-7.538655432999376,0.4917325240531695
-5.699004987793662,-8.288395841056573,-2.3236638413628747
-5.027836849391704,11.762396770465857,4.313112458055336
5.3918107677707585,10.684353861921474,2.304286931935367
