6.033396183972158,-31.936940268969543,0.5983540812880881
33.703937782099345,-18.434781491184218,9.372604861816697
30.776206592157468,-20.446787350817836,2.9535967206340765
-36.75334536936753,-13.772050215593746,-3.622660550432096
-3.7328762690122033,-34.49068984134108,7.122252102134738
41.84019530142273,20.55778244640404,-2.0035372228000283
21.98285987658817,7.027995369982778,-2.1301802017376277
-10.472044148279878,13.688566849477482,0.5289249940228167
32.14264218229403,12.952552890691113,-1.915670902532569
42.05787615585485,-13.201903812015978,3.5237045378383804
13.755607562547187,-21.59623671648196,-3.317693997133632
-31.759140474623564,13.51498181893201,-4.472211318798423
-10.46574133659254,-8.006514233844596,-2.874202142181752
23.044824071223857,-25.291652996491948,9.243185596045189
-25.34870233896507,-25.482782275173744,-4.209462578966225
7.441196238783808,-30.969795588254765,14.353148994836138
-7.856505416957295,-35.42342720523136,-4.701428395436258
-13.45006212306334,-35.14376808489917,15.316875657337654
-30.408746643581033,7.531807923589143,-4.0591921564896225
-23.82527468729571,-32.30239466141412,-4.700748685859194
27.148583001144853,-4.294810470638032,-2.1971533768251814
8.210555862366453,12.693654258618393,4.0839093296608295
19.272527339404093,13.649437551075206,4.547146565886814
-3.0174385735393194,14.069994542427603,3.6984673384915743
-4.992433436741264,-34.278975278924534,15.10150123583877
25.683911970282818,-23.73323198283866,2.3639240735002356
-18.55832494305556,-15.312523113490915,-3.7199857326427095
31.01433457233779,-20.060805293118072,14.509069594686235
33.307033256270316,4.613145052796844,-1.858772776022909
33.455325901692554,-18.83581620960786,-2.595305131954758
23.023344161425005,-14.102917282074127,-2.4920328083065835
13.990741938450972,-28.474636145348835,13.830925170461187
-42.65709802195631,-35.19648467304553,-1.018119661633318
13.018325499778879,-29.16100642468138,3.740017203644741
50.223440696452435,-4.81285072719251,7.800755453448002
47.55649385095864,-7.523270283731466,13.642918746600728
-0.3327304844614389,-34.53561356324714,-4.475066457369256
23.54989852679108,-25.217304055363737,-3.1846849476578156
-9.16687323189388,-35.155706821129,4.707515600575561
42.02520612750337,-13.191648739452782,14.251998802859601
-16.675354321378553,-9.77770265136637,-3.2321183604528376
48.638890467905824,-6.475336876439283,-1.5058608209983684
-12.032138414364011,-0.17940735453790274,-2.6247533547031177
-30.5227682207168,-22.762267967196586,-3.986172420115208
-8.749883460115608,-21.282696528506595,-3.8475226361782453
-14.593159764590645,-35.49553454940437,9.863911580141258
-4.533470136451589,7.953701444590403,-2.715903618833171
17.281241961199452,-13.756339059886018,-2.586801160249728
-1.9070532621886072,-1.086986866804611,-2.4519706375269332
-20.311471200926047,-36.07631763911602,10.10088974325039
28.830182492664214,1.4925758105729656,-1.951467910503676
4.257101935212481,14.168212326501447,0.8178027341323316
13.562105815752592,-7.417959850569867,-2.3900387418326523
-26.13326666047207,-37.315076167303786,-4.769303678470122
-37.875119435535424,-36.25105430093002,-4.839056817775753
-24.824460430732778,7.792360640781135,-3.6964996801922836
0.9212269794964286,-33.88344223812125,1.0402415171929442
-24.75145175490563,-36.28155852916043,16.019571911807816
1.8586062406144956,-20.936675334599983,-3.5144297983673427
-48.92399031820026,14.700119469013918,-2.1955144191876124
-19.321908253534268,7.667934934460715,-3.214060924903996
6.3649960583256115,-26.49071742241934,-3.8706667086082507
8.092169145031288,-15.971339739287734,-2.993656356573399
-28.686050695439654,-5.05548198871638,-3.4112991670765735
-14.328937800186832,-36.106516801747055,-5.0333442673772915
16.92753547691279,2.133156691301579,-2.2106864780879234
-19.331328307349743,-36.3969761265741,0.2528776708779673
-35.14029000362257,-35.32616176064729,16.122353294378065
-23.68377404305224,-36.61550378333305,5.650327233015391
-36.499544605569504,-35.8029522384289,5.352620370085698
-39.566358389466735,-35.172527196568026,9.520869855620486
29.945448782710013,-14.974402220601723,-2.676340130547517
-28.992698811965667,-11.271661832191615,-3.643018046719601
4.464002445570073,-32.230219559328994,10.52807381026296
-3.7163031817353818,-30.799476011209645,-4.407440502834892
-4.147443370655151,-6.961165729067983,-2.7321383445410174
33.02697501155059,-6.47895804518037,-2.2751045197553985
7.193056383469297,-31.641488903121274,-4.20446407259696
-9.726927347171294,10.162698495790702,-2.8880355463031004
23.264317421136166,14.818082652865522,1.8645292186997107
-39.6026247254633,4.286133408995619,-4.170236779416969
7.130801435911961,-31.36763601955056,5.37855950072925
-21.931080149888157,0.7498483069208212,-3.1175840682161584
-31.11543337588798,-36.26440043205955,-0.2932004663100548
5.708694274278693,-11.618611295972451,-2.823645746839637
-24.28241446055543,13.281563939287246,1.1895141358831136
-0.3282125284422237,-34.06667431523109,10.563196746837372
-30.230201773793034,-37.034378431004086,11.663506761271861
-50.89944277478609,17.36054587540099,1.6504257752091454
-50.062171839234765,9.184284299902453,2.1874743902259066
6.437769706629872,12.874096754228916,8.507820338281888
16.396479344554947,-27.963327628439416,0.5967722896789398
-17.166020268975434,-32.32013961920255,-4.741821517656248
15.92845251594683,11.281053806428558,-2.2858996768820217
-33.031008162473476,-3.3412654032622697,-3.4756854819029677
-30.503326550236217,-33.83416146057355,-4.76912083761563
-6.938051539499636,-16.30387346540726,-3.4115855137585096
17.121338881252097,13.777232294282934,8.945249539835169
-1.4484095828821935,14.318655653057464,8.036569566756015
-5.15642303601338,2.11994286418266,-2.595132477176069
-15.003540052175872,13.526502855830216,0.12395213825336227
14.102853086714674,-17.09224066260086,-2.8712330965532917
-0.8718566852321729,-25.49950258814359,-3.9448511267117192
39.24725415853048,9.941017416385694,-1.7400320016595792
10.375053008337972,8.348617847748478,-2.39497266770893
-13.64334264247301,-35.6487922020603,3.9960817614684827
-38.90087996942673,-9.853283588369127,-3.7039249256795523
39.51947485674654,0.1042418632470831,-1.6984697200095191
11.405008691161003,3.8011015696386177,-2.3146851473145897
-19.88382339250678,13.564838870059535,4.328867484366347
27.345243997053565,12.207716086342415,-2.0243161367613163
-10.62365558114651,13.886746231129617,4.954278310684064
-31.327466462926353,2.614532702767673,-3.68162766305868
-0.20876613237549255,14.001114990203343,0.25778706288062614
22.776388363668215,-4.178500819514516,-2.1373366952085893
-47.954412264265066,14.408791776103326,6.4879877283741925
25.238012622147647,4.129154255983215,-2.0442641068297163
3.3450969881610786,-33.06888636033955,-2.656904596216338
-37.19670295635879,15.82891591732733,-4.73427205177494
-31.44424716681061,-14.973643322555185,-3.6461082653763532
-34.46514029678445,5.886665000126285,-4.094789232295341
40.52892061607,-8.468404937881722,-2.2888037069030593
-27.69520368566457,13.426865662148659,6.713396981007615
-1.3145070712636613,-12.145662599527313,-2.980554194647246
2.5751371310299573,6.984158036361467,-2.509853921116376
-13.44562363232308,5.917649995992092,-2.82848034295355
-7.935886828039816,-30.434773519234913,-4.468464350603715
-15.39287519689977,-26.572009936993176,-4.362778159635188
-41.66292611570797,-1.1327364945045413,-3.8468933664547422
23.90926963718154,-21.029398812226177,-2.9389695430843297
3.292048357873686,2.6490518799381175,-2.428098017202876
32.91219829220786,8.76756598111369,-1.8828197512233733
13.46910219606849,-26.583676552124846,-3.8614035292085775
-7.04340943747287,13.901425320287197,2.802677490246477
-25.93634792982473,-8.291939001039633,-3.5282001072125193
37.28706433378492,-18.07707967877366,7.452369116398192
-9.047423315758941,-34.697606646160104,15.111205414165877
47.57155068313259,-7.525652221693848,9.27339638084029
9.747341665166244,-30.488700506230433,1.375676360624777
-8.269916741536843,-35.236163284771756,0.6663192261267061
50.59227172757937,-2.9742736982658537,-1.5553193894242354
7.2163319343157255,-3.0708826950018873,-2.326562479135538
-11.58478315293049,-4.179603963787225,-2.686310788157796
-25.762062443922986,-19.7085245102779,-3.798725209276084
12.108468472994488,12.475025055655603,-1.8200564783567204
37.47304470737259,-5.928104047608084,-2.0972522143152603
-26.846677576763604,-1.3898871974023974,-3.1483218751768227
3.7987475682054095,-5.505723136176818,-2.53321367834898
23.44999484976788,-25.110326889543813,5.312090520592875
33.32119193818467,-18.760296912873912,5.432695294959142
20.673696932913874,-27.023690741268812,-1.0441929838948525
-28.640402812282947,13.026984603124143,-1.3522507996354851
-9.274794760331833,-25.154634128189738,-4.145170730341617
7.084757710913094,1.5193908666151357,-2.3444925055418353
41.65012986705269,-13.637598742272148,-0.8068298562124508
-34.352065114439775,-36.2722060355849,-2.761618275157314
36.93627791406366,-18.470208479108415,-0.7602704183804823
-4.58000116713609,-34.4022526336436,11.229524530683959
-18.33676290919145,-0.7238207953782069,-2.8373046215287125
44.706630879396336,-10.492632588265153,1.9736065731007355
-12.239149972762933,13.105719580542702,-2.9982744055147306
-2.054258041148779,-34.94284371911034,3.6645059991093922
17.532752372802914,13.41292765764295,0.6774639774902581
22.996557745368094,-25.238680790621046,13.412161666761675
20.240454193038616,-27.14117472417408,6.950875657854994
44.66896316241524,-10.483791986615085,13.611506020758005
-29.994594386900904,-18.591461853432545,-3.694436006838697
39.59882323792942,-15.714866051810036,5.520181053019069
-28.753748118389986,-37.04557991309821,7.840979812974872
-20.88230820390636,-24.33790259334708,-4.15522073650176
-17.150033331116315,13.311378571524438,-3.08432932386819
37.65254154543813,-17.68694304486761,11.237871185487203
33.83458355770655,-18.506239797974246,1.6574428992218804
-21.29237329875206,13.042613499843469,-3.5474308950219298
-3.2253767649840435,-15.43632358440968,-3.2375007654680963
11.187540723882634,-4.439796174462744,-2.3174883546606404
-12.998915229588052,-18.08441300614747,-3.7238419311867794
28.215713792043502,-21.90025177794955,12.533284526744062
-4.223714183452529,-35.00472843841161,-3.6912493712018635
0.22006601474276602,-4.250734415313715,-2.5158341416906342
-11.550914028181607,-35.2772565353224,7.620735498918012
10.908610922958522,-19.138503584435465,-3.1296854711466584
24.05189657650724,10.385394202675796,-2.0942021627660545
-9.330693120941604,-12.33090281750177,-3.1745947987207574
42.47197130030375,-12.761490797015659,7.415054014968878
-23.52814468825537,-16.663405684131394,-3.735735120491721
-15.890012608298665,-36.10404961238906,-1.2105710636506308
5.703043125959752,9.058866508862618,-2.4728815682046603
-48.547547324766064,10.76728308436199,5.823736691742165
32.817136869410724,16.627397997781067,-2.0336812649066274
-18.054768188689625,-21.042462606676313,-3.939125380393414
10.116733790169555,-23.42969655889626,-3.625723216206234
-18.96421263915411,-6.841983770465478,-3.117101622695424
15.636940956221995,13.560618937755978,5.319740460471606
11.814333826256888,12.785376648259733,4.932681617842914
15.937667685689599,-10.30886048911733,-2.459423698990384
-39.936514002459404,-35.50157714947987,2.296518915751645
16.712877081184757,-27.71768690882444,4.598330770613156
-22.58416978100723,-36.86918834368382,-2.9226835209817708
27.93089841415739,-22.233755519138246,5.071893232426288
-8.433424665391177,13.606092631397381,-2.6765366781282904
-2.1824837251104836,10.822810849284295,-2.6936590314851356
34.096001943577036,-18.109224383013665,13.017226113507293
49.66056090740307,-5.374688942721126,11.539169973267091
-47.540987721656194,11.775216920780553,-3.9151001223121504
20.291408997621186,3.5760535251881036,-2.157058360779685
-27.38669610350473,-37.130982858272986,2.5505017507275656
-17.293393702961957,-35.67057815809538,12.291248002733056
10.73439338265632,-29.752967193486068,12.874830803575625
39.60940090675831,-15.719063819197904,1.8314804647975536
-48.036965445313335,11.274261091885435,-0.3027641394151584
30.832233746622126,-20.484010109567517,-0.6814681795557207
-22.80409564876472,-36.222636542438856,12.69790634466492
18.937736008487786,9.30487666429907,-2.2089944648447646
19.50642143665918,-27.54238326855734,10.464614343936898
-33.12097350331834,-35.84325002361314,6.933481973771324
-8.345049686305696,0.490597890649186,-2.5919319975199273
-39.07013610867292,12.792825394706115,-4.814682437223218
14.31242166907212,-0.31357756448012025,-2.2134134221151522
9.118374655730108,-10.257462523001498,-2.6425227010062518
13.670426448039736,-28.707526875597658,10.288111580968213
-17.73766092273433,13.767478753960143,7.265193616896578
9.753923679118094,12.56670113521404,0.8793804902682596
-33.3048206801969,-36.042207953588644,2.7127836688618805
39.57514734133281,-15.705470228569608,13.776564866468036
20.871181228670626,-22.906083883781204,-3.244220003840525
-20.137397025748577,4.20765295045428,-3.1807375513749334
31.069513232283818,-20.09649615570713,10.977101444620429
-5.958529468711972,-34.88589109407058,3.2665845346123663
4.73892725752831,13.355369879395193,-2.5486071446626513
23.288087985452414,-10.592503381013268,-2.361384729331026
45.156365150804014,-10.01515819917618,5.9931924747057135
-36.99220439968358,-35.405998195899144,13.16074659407161
-28.317584813278213,-37.42287757542926,-2.016921658152704
17.13914586136445,-22.403490717212968,-3.3034895846755075
-13.006493316795288,13.927393202588672,7.485458380690411
-41.96989554883204,-35.50406164738801,-4.394340708776388
-7.277553417193265,-34.82962693543723,7.761140195005469
20.037601090261923,-1.9201787380782234,-2.107359903949554
-21.113781693966082,-36.44774675315809,3.367058807613083
44.14033043160091,-5.876439750831897,-1.9137961798126462
-32.03043354067461,-35.528022108754655,14.190665057544836
23.154594393603922,14.748195156857657,5.285758476269617
-0.779304278468551,7.704029125615893,-2.610860941252581
-24.745348214632692,-28.840196620291493,-4.450454403323871
-25.401925453257068,-12.870346554058019,-3.689748647128341
22.543338974823605,-17.497512311863574,-2.6339619297187387
25.569457349727646,-23.627470132218452,11.264724898428373
49.155246156280754,-5.9311332966537025,2.127912135488734
28.378017633961772,-22.026227502991848,1.1024517359752835
-27.012116971514526,-36.62312709953416,13.500106442864613
42.461506297932566,-12.758346393133241,10.817122359835684
23.144512726357302,-25.401061116316583,0.6326354784503199
30.532438013982823,-4.064809453866886,-2.08213672014832
-32.457543284686516,-11.710161060127803,-3.6123895284561462
-19.25930873791904,-11.9374410970822,-3.5033462727420708
-5.499251106842604,-22.202548887853368,-3.824497474304588
20.17671968434574,-12.02123402219459,-2.4588050067754375
-35.42100496042026,-16.867361829021885,-3.621105453769033
-7.060518904785523,-8.649691821301959,-2.8697310223374775
31.122125074867597,-20.13052674010428,7.609434442486768
-11.211429036857686,-35.71673454650873,-3.455238888194523
25.61648202029419,-23.670923303089133,7.607753912543916
25.728133608998554,-23.774095010695017,-1.0750633299922192
17.978458746450272,5.991924216048854,-2.219382007419513
-15.726527671878575,-12.975999677207195,-3.409045115099673
5.6050637060954775,-18.303477248191747,-3.2006670845545084
-14.629178732652322,-7.1879079815194,-2.9313949330296776
13.712104382966462,-28.795049414969494,6.956577126704428
-16.378552097943622,-36.008972441294674,2.1867942988317415
-2.0013553608467927,-34.04297133059549,13.395450626854519
2.1495625935379716,-24.214216625801107,-3.758548613543044
7.10945847665572,-31.273750615007074,8.663922185980118
5.288640646323385,14.343586454626628,3.9291670880184832
2.4582703652901197,-10.813669508132422,-2.850218787345661
0.4844849856321418,14.169904703722722,3.4591364229639585
-1.2950803941421718,-22.029263563640225,-3.6897062425333065
18.407264822650063,-5.778012630271681,-2.259451452859534
10.439783539842026,-30.08798235603867,5.727615178347729
51.87263836321788,-3.0495452897259545,10.004873138964191
-20.389570078868875,-3.5933529291217132,-2.9414008703133625
4.493011184689285,-32.439663447936034,3.428549862870738
9.483104501839078,12.857227807626519,7.199354380766374
-49.05734049589779,15.399025098180086,3.475707309810151
16.965174891428035,-27.37081912024406,12.649274793931685
29.730908776759165,-18.211626610787476,-2.7870152776585972
-0.3727621620238179,-17.01374667541978,-3.2766361661396752
-16.271943468341096,-17.60936580102076,-3.7070503289728487
-39.319834127043094,-35.82678680958868,-1.6324855367892637
-3.737909183966425,-3.7576805560168856,-2.5467211732358717
-12.200309123191659,-10.845468774711243,-3.143037934092671
-0.32927795065404875,-34.177259342776274,7.016880763040428
0.46699876423016906,1.0974102335739264,-2.4821118389542063
51.36110266067399,-3.019472570438063,5.386312297129353
4.4492524412669106,-32.12372412546925,14.137951797171825
28.701242429918473,4.6957682090825035,-1.9659369985926287
-4.337662498268945,14.16474655962595,6.675662034780842
46.60763369246715,-8.550523132555208,0.2907572641523991
25.269206597726413,-1.485553702042856,-2.023422370681341
39.287168169736894,-12.863888706452,-2.7944664001341373
-12.11118027475995,2.999764660695376,-2.7215280116502165
-11.983283758255094,-35.133829908631284,12.01107217844931
-7.721667923373501,7.681039677548117,-2.7992849777564794
13.423391213276373,-29.103549633868035,0.5900360965349022
-12.805965658718156,13.712667567168703,2.665595767919374
20.592971637248507,13.838492553221894,7.692822914348987
-17.45650865378121,13.549256187506712,2.3134318227194943
-8.301084933247568,-5.727444955675309,-2.7244467220011073
-37.2012334973156,15.83084387185463,3.231800161891785
-21.993587636966236,-7.631229355211011,-3.3073905673686617
-3.523953015080791,13.912608119731077,0.6168172493570286
-6.5293429268117285,11.135448752387392,-2.815624307169605
-25.92671329544167,13.365013928045583,4.144029107024526
-9.929099650628862,-17.140146412350823,-3.562415828379782
-1.1888705348003445,-34.77131940673952,-1.4952713337698813
-1.2281138478969902,13.834356274863506,-2.674160972584509
-29.793065651912563,-7.936652136197148,-3.610856104405378
-3.6299406455695244,4.867521862907033,-2.647076856381563
5.141669969051244,-14.818552005315684,-3.0200544561309686
8.293331504230464,-31.13198937518299,-1.3846488480856465
13.326460427572863,9.68597411478062,-2.340558409932747
4.8209005841472345,-8.704565858118627,-2.688027655776419
-22.29756112406001,-13.820632201766994,-3.7269964173166334
49.14437644038443,-5.929821743179373,5.182275558938979
-17.3722305443704,-35.83319260853235,8.686068887895702
28.427478915325583,-7.0410764853838135,-2.341062554906043
15.31187207747862,-28.46563541565142,-2.184932935455594
-14.958585987137027,0.6953213332019453,-2.693115806323219
-10.72327953558261,7.315472290585793,-2.831415607604564
-21.017585899873282,-36.28168839409041,7.010748324971254
-23.714626969063634,3.1571484679549897,-3.39887908868397
28.696569934646455,-1.687045279299802,-1.943175289461171
-32.2290359887545,10.552828096043207,-4.39414972472821
2.495297659090227,-18.016117239847794,-3.271019603369917
6.630853349420183,12.484553943760925,0.08673975860713252
-16.762063885440053,-23.934156366011266,-4.151310569410674
-2.1828632223614353,-9.300664968624206,-2.834094374592518
16.427438348349,-18.942710852224426,-2.9364634169721224
23.034082168382085,14.671435539040734,-1.1737135938721903
-28.5599295285502,4.878051739063291,-3.7541657687864
41.01544559464234,17.710103215512003,-1.9200657608091118
-51.65407012795523,7.52296428794161,-0.960976115794138
2.125989672705358,-33.174802217058364,8.980309374822617
-11.87086090675635,-23.73906163685659,-4.103680055213653
2.119945677659527,-33.08048927526915,12.090611533054004
-14.647177326283455,-35.62692365623744,6.92765179936282
1.8599754413001628,13.971032471153883,-1.8262306630152
-4.833141767198184,-0.7907432410222147,-2.502925376596878
-11.128486010582204,-35.45249935916318,2.5118057752027365
19.566154432453413,-15.575191590699719,-2.618148146527925
-23.513748081774008,10.695144067304875,-3.6699428430635503
-16.662865688764217,-35.472452250266585,15.394608046230331
-6.769312205358308,13.777232319045122,-0.0941902442816184
8.582070621897971,-13.115774942890807,-2.818880865531
8.565669548689518,-30.63773362327391,11.163019241771526
23.188007295627806,-7.278680472946029,-2.2432091165350716
-29.222774885121,0.6402554918870769,-3.423205801957935
-26.54114674837575,-36.92470109827819,5.325600007458465
-6.906979533267698,-35.208846678705896,-1.9834249781858615
33.367764811946486,1.7274923120542722,-1.8470240997954366
10.365053164694219,-7.259068615817753,-2.436454105795058
14.262357755312076,3.4268551299468855,-2.267901253968319
-17.541161711649604,10.161403434527427,-3.134280310762389
-7.230583118098807,-34.60483188403426,12.894438256176034
-39.73515783694068,-35.32258152046112,6.226400167187226
46.0851901551994,-9.040610392422314,11.45798388276898
4.5822200599862075,-22.722964853502546,-3.5839809949532326
-2.322362075895392,1.7573123530855108,-2.543502900106379
-19.680248566069174,-17.93191872219367,-3.78256576551781
-29.217616526599315,-37.64321588440624,-4.988684465127685
14.034521037271952,-4.4054149594994705,-2.274307633803036
24.85729481837234,6.949579753731715,-2.0632037104907237
18.222053781037513,-28.608535473723563,-1.457762750902033
-6.230970033332722,-19.029795200059027,-3.601183895773252
-0.6648534014420339,-30.345481652462286,-4.312237713797815
-23.420631769936332,13.186143121956713,-1.4857754912736343
-16.255815516428232,5.993700874692056,-2.896880534354949
-22.5542452369685,13.437757198853491,3.401778207444189
3.973454790565692,14.506975484739142,8.399301335931463
25.37392824021637,1.3136410607250855,-2.031022250128155
20.15883577186827,13.546752922537213,1.6417970627797334
-31.234984462716675,-36.40373477564621,-3.2424816237057996
9.796394369818232,-30.642132413362575,-4.168342249207969
-41.07180972795968,-34.74433389653387,12.427624817752934
-50.747582939338265,16.61639892782991,-4.268511731827573
-31.479979124858172,-35.79100457363019,9.177550569287288
-9.660609589540798,-1.9481189773554355,-2.5329321533518936
0.5062375475485825,-33.9513408373998,3.9766058685540293
9.30922706063889,5.613165633087646,-2.371099652128093
-20.569167203295766,13.665536931259675,6.997406004856228
10.712194409348353,-15.12524298870579,-2.8656543192307424
-14.343992693133874,-1.986695074897652,-2.6043059481240443
4.860920912815478,-32.18453467188418,7.099737933222968
-30.726291479401173,-25.992634306439925,-4.21335676172268
-24.619979678927834,0.23719913795649286,-3.1902153711707095
17.19272299222004,-29.321279022993934,-3.980703506598095
34.81726891498181,-3.7682214383769543,-1.935921165196705
-37.246743832646274,-35.64962311229746,7.971504630974583
-23.603072594157958,-36.49073801745732,8.367642608343802
-1.4927599830921916,-6.360297951371493,-2.6592629066423403
-24.454994737261256,-36.80930198621018,2.987313073264961
-25.63794605239601,-22.79086050618459,-4.017402227066782
-42.17825060765117,-34.80138640195256,7.7687349473332885
3.3364435419644516,-32.98334031192471,0.20341859402883233
-48.5745849887004,14.595134163168018,0.9337456922261708
-28.386933661244814,12.91169506793211,-4.0407653648015955
0.7355857693820886,-1.5948396801551115,-2.3987227443314074
5.900598243430242,12.561386099344414,5.848575951698014
-42.509444044730834,-35.07465498496747,1.6913322254539782
19.248640835050505,-27.89805989545155,1.0401852013837685
1.203070740663297,14.41525601908166,8.312184672736654
-17.066887442368053,-36.33254694408895,-3.7050367817191123
-14.537474617322191,-35.36008930652065,12.890817149128381
-37.50214844502841,2.6668850698120834,-3.9360399102840407
8.307356267320609,-18.608450794041687,-3.1507879005797865
12.832147501833342,-9.959955761288693,-2.5115155735620407
-10.189911255272735,14.019803015646106,7.555733005645813
17.832033339151096,13.29818836648782,-2.05317025348209
-6.258265680254357,4.9817498544214445,-2.6970557335059433
16.476616196962194,-7.739742399490725,-2.3587229836478376
-23.13391631496473,-34.82083398136182,-4.895948976274274
16.816607948087576,-16.322481618569043,-2.744613489910372
-20.00583210138285,-36.57625780628762,-2.3046028210595595
-50.36800830096887,16.49211392254065,-0.9757091520457714
-1.620261543714308,-34.85700850237343,1.0708903269138634
25.65050600904998,-23.70236318728812,4.961807897294391
21.598840641825156,-26.17715578637149,11.442869014286849
-21.853662285105695,-36.679696709077085,-0.26198512668548174
47.07871457709637,-8.041070454536493,6.785364771972611
21.407044197384817,-26.603112317519578,-3.5748256693150777
-7.969720873732231,13.982397262685318,5.207501726545718
-20.242511352637962,-35.953834271634854,12.793255080387928
43.36298695855357,-11.87710480692251,0.2758754307494123
-37.12032138497415,-35.528621592468085,10.548852521247555
-22.054261986104184,-36.00410140515499,15.989850124240208
5.877015879123648,-0.7824121249356922,-2.3289089099099165
43.793993823278,-11.419312140100532,4.1773248899022235
7.521709767545376,-31.304887883608927,2.573626397703346
-34.44216241767356,-35.484821229846155,13.358911343673029
40.786249839729074,-14.472311350661348,11.691169080422988
8.157430239263237,9.74684169126933,-2.447204473974674
-36.862251479497914,-36.15873686599458,-2.2192079376346223
18.434118401067543,0.04862430121883502,-2.158893552896831
13.476458723608133,-29.218606469830522,-3.768332724780325
-10.941230980042285,-20.003631091980704,-3.8122735381214055
-37.49701663711989,-35.8891643509848,2.8692455268352433
5.6684291024002125,-32.16406367540912,-2.2077271714631284
-34.2152529557375,-36.12774663286515,0.30531750344678565
-52.00633135907714,18.453567626143577,-0.33860451848517886
-37.651470274679134,-35.16189924214306,15.973324348473916
-33.48812945114558,-5.901775642576801,-3.559922804174632
-38.57614936376201,-33.4538873730149,-4.712961784017047
-14.708279776597204,-15.530412879355682,-3.5764411122023705
9.824135294316442,1.8559354746060477,-2.3096345067098834
6.3438714848896165,-31.458892610827096,12.153627422516287
2.9726694135560736,14.226892025544771,2.983843502053315
-13.755984144151006,-35.9431140256687,-2.6015372252382765
-26.275244957655065,13.13909466830029,-0.5408311991663896
12.51076984486958,1.420833952680994,-2.2644496825021387
16.77171074114914,13.495892842022512,3.058413771350281
-0.9115270747531736,14.223836930472851,5.5987024996520445
-29.792063147879787,-37.425935020978606,1.4680458295903263
18.149549545975866,-28.49470417865216,6.5048051190527945
-18.463552550639044,-30.142183798826117,-4.580071910600013
4.007968938681742,10.870212749169351,-2.5270548259289964
-39.66740619263495,-7.493804200875589,-3.726048097529247
-51.1266754000783,8.088060464441488,4.1377167823598695
-2.436632406170192,-34.26430003922166,9.279620528362416
20.844153446919435,10.88455863821305,-2.1704199810797014
4.075289268641098,4.9925503680066,-2.44065545862492
39.46424796435449,7.455424378985125,-1.7260910175369477
-48.54045175141001,10.765709368465295,3.3609627101353476
-19.305559506353532,-9.485603245361228,-3.325723791974543
6.297538639349011,12.59366604446566,2.5322858036240987
1.3343127944772506,-33.80253443291229,-1.4538931397525343
-25.01509878641163,5.226835130675857,-3.630663237816991
-4.779586411023003,-9.558101750259693,-2.8868843586033215
-9.303842602304519,-14.77847287706806,-3.362396054652445
-5.900573130111113,-5.245316408735306,-2.6619758593332015
-49.55163239639472,16.224806064318376,6.106335887110027
14.957937661332377,-14.518425076120343,-2.7009672925532096
-32.99708539379153,-0.8971286062343651,-3.4557635959605166
4.158897103562977,-27.536380539236802,-3.956480032970261
-27.6804920911568,-36.58093278736362,16.096965885358507
39.59856069110552,2.5376528406248764,-1.7053537949786295
-12.671360783902161,13.568532251608527,-0.5697534594316235
29.911747382681003,-20.948414177892364,5.646114010872353
-24.837735942274968,-5.967829743882968,-3.3098763782609457
-25.333358560167838,-37.13453822597572,-2.484968151036364
39.34457630140346,-2.313031901251557,-1.6938666087789847
-21.80380907402223,13.35589276905638,1.098912032044746
8.364899118239538,-25.09844722546497,-3.758577918674251
12.269930881323951,6.7955275331796585,-2.345191689568178
13.79382978476418,-24.200447026962475,-3.609306926197458
-14.533204765656022,13.429415291428166,-2.317438941140027
-22.87815142988362,-1.4661342470796026,-2.9704554720770275
12.160031927612833,-2.2308498855728884,-2.2234055243668873
15.697059731606508,13.278788739067965,-0.8836362864287706
-51.64619775720228,7.52181774588037,-3.5280031594696433
46.13019084681761,-9.049438254886148,-2.020366462958556
17.485150883181916,-28.998474372746077,2.7068218024620623
22.58630391729897,2.8462575310309943,-2.101194990905989
-9.718549480767061,-35.482160108996744,-1.5811157195955952
-9.537158828207378,13.822702106699985,2.8079283635855137
40.79940705973499,-14.476979967785574,7.238484200794894
-27.850587462352344,-36.80572096384021,11.260796331814586
50.25068982020018,-4.81546197730254,0.30975076396406753
-31.253901980054305,-37.34348022589425,6.918334165395924
8.90371285887689,-5.157823632864121,-2.377057126222241
-50.05474347438132,9.182921510151408,-0.31226172876512037
1.6877605853308904,4.7564914293947504,-2.5017773983022806
17.90918175158464,13.700904121260999,6.689327337819967
-14.218718328264362,-35.82878224316753,1.1829792739395535
-46.61473501576711,12.767757300906524,5.059873765321922
-46.596634695484006,12.762799630411022,-1.482686142937013
-29.32745870141171,-36.84228105456274,13.969602916952736
-18.671969063740455,-36.22164489938155,2.7546843530852287
38.8318591677702,-16.524750443642578,-0.258949432897404
-17.287024963424795,13.417707663928045,-0.6715800563168192
34.701227629344984,-8.144367506885343,-2.409467848553559
-5.258499215818037,14.033309113604368,4.445777595249033
-15.353981465252021,13.84244474409733,7.254015202620183
-32.135977043173185,-35.64509051763033,11.709050998455032
31.287538251941605,-20.23751989613857,-2.978609442560096
20.3436189334515,-4.2507424429683764,-2.1757826060875027
13.806108118530723,12.893227782299324,6.6285982195396915
-50.59209992219695,17.255718800663477,4.272924422816454
-17.601093273703373,13.661478745576726,4.859911705745308
18.15798567166337,-9.360296796651822,-2.392466689255745
-9.562746291995836,2.4934922643854858,-2.669681226291513
-11.584769816339351,-35.3806543548484,5.289147585767432
-14.327468204510065,-9.885428971682135,-3.130514538650512
11.425250138589497,12.67283937966051,2.638117013483508
-26.447208441696496,-36.794011798049596,8.149240989187472
-28.126104220792033,-13.819494088648941,-3.6700797969548744
-3.136807705449327,-25.996811603150665,-4.048591652090066
-6.8000606017293,-34.66381939877048,10.479317047806811
15.24596020472675,-28.343101519742174,2.5726313166649093
-19.898063475501658,1.9068070195866877,-3.0905872838883006
28.973672048354683,-21.37010901164726,14.65442612204982
22.756680015109634,-25.599495657511326,3.161448233282027
-6.842813278280267,-34.881754376938154,5.495956560482446
3.6520446848414116,-13.062653374432692,-2.958498253674684
-26.234199503830343,-10.571621794224678,-3.664840613036313
2.4458559257301404,-3.6396624497680823,-2.448725815935054
29.794802732063424,-12.679065340079106,-2.588377836986632
9.359546171587619,-30.563834665920567,3.743514129050886
6.051047554388213,-5.064306968646165,-2.446573906732445
-12.486713570836141,10.713799196130346,-2.958984908732372
9.48873352119057,-2.724568873651554,-2.2805832378989614
-12.907612579353108,13.821511403630543,5.108770924751188
-0.8940117194556335,-19.2330517422817,-3.4626826155568153
-20.998023071072076,-16.063933284240044,-3.7560620673228806
-7.303546629720137,2.8984259532052197,-2.6494020321833114
23.339828562035965,12.554663334712636,-2.1184969415736
0.8284986525245676,-12.928227868400885,-2.992699788139239
5.654958159873411,3.315821560821207,-2.391031819518724
-15.817094604611912,-19.870042297993898,-3.926673097928371
-26.727669539010794,-37.184196227012116,-0.28098812768726444
20.449570444315246,1.3104999177212853,-2.145270882711896
-15.11458657626148,13.626617303483933,2.3832990369518328
8.962440948846027,-30.60353720482208,7.366712352672594
49.11293477428126,-5.926027952540345,14.017306376108198
-5.031263620509508,-34.5455905330553,8.972510459015165
34.66050807908066,-17.86721548355663,7.01296411823742
38.41952716317154,-16.90909406512065,9.155827259154695
-30.66952447147384,-31.59797517580349,-4.610018750672049
5.754580098097193,14.500575401774473,7.030162510674237
48.6068987721199,-6.471077794756506,7.581551488229349
42.241162146336805,-9.913987830988857,-2.398521291404545
8.106565524112947,-0.4765776233861855,-2.3009972240495324
2.050755492854165,14.08086812441355,0.43669021230628685
-18.37825216795454,-4.6550651453575425,-2.9312457905854683
-15.582638510707252,-34.259121156696395,-4.876647539692382
-23.318326330333853,-37.039454335362755,-5.125865274424761
2.538044867710466,-33.21307740325695,2.662681460995898
15.878626660492602,-27.85809810286381,10.375266218196577
40.81766934443468,-14.483460030826109,-2.9277376685931595
13.646190350227174,-19.267942405637694,-3.059311734863775
7.980275798192192,3.562628340253133,-2.3608839734822578
4.09645957667939,0.5673745267175112,-2.3764046432170525
1.746519634910062,-33.735291329791245,-4.3770132056980815
-22.86830525521847,-36.324628801765016,10.47233443267589
41.22784172094645,-14.061801043818381,1.336821955665878
38.047493915600455,-17.30576628668857,5.415907102412835
34.719778784861155,-17.897769059679245,3.60535271969252
26.942259486525888,14.492437098702245,-2.0680033748810733
38.92723048529833,12.445168515507543,-1.7564300830818866
22.392215191747454,-1.868813074160283,-2.073978399732344
-15.775489320208662,-35.843838712819604,4.586379922533219
-9.348259338043807,-10.11661075437623,-3.004498626599693
-26.49463219272069,13.248800577995494,2.002421150658015
-43.625312321486085,-0.11507197040476594,-4.026613868437261
7.319187353876645,7.540759248809281,-2.4276424331326347
4.91131142452841,-32.5181741612828,-4.26123992082826
-4.1784472025641,-34.62957086277969,4.955531488940152
35.05639517824964,-17.530161782266198,11.106110554817421
-4.465704703427188,10.34228124343887,-2.7484442776200164
-1.5942210517778357,14.03748314361718,2.0071347393658048
39.188458775541974,-16.111419284123876,11.446246692731401
1.5247739134843126,8.927218866367712,-2.566199018678576
-3.464487405879453,-12.648749391489972,-3.029634632178784
-24.825692092955734,-36.39038265781606,13.658741453555676
37.6908743829069,-17.70494955080932,-2.8149180570671457
18.867116856021532,-28.076035073794692,4.382976811539195
14.215178043040972,12.63658715824654,3.904754659841316
3.7469080127758074,-19.833734392453174,-3.374907174558574
27.887197725266745,10.061253681900673,-2.0040502385149415
-12.009747125961459,-6.460130223352689,-2.7996581827581584
1.6533762723093397,-5.913805280733142,-2.587768021489109
-11.451665088719459,-34.974143700292835,14.455833431500515
-7.24854937351085,-14.06141904727152,-3.2477810485659035
0.0892521144174864,-33.83666198744998,12.814333293608193
25.38305619556902,-24.039353944401174,-3.226779596704227
-16.638650536297288,-6.234761173511792,-2.9709240701383908
0.2889231994352082,-10.626819184852168,-2.871816877840377
-32.715009087003075,-35.403918611050024,16.253469111388632
11.753755787297587,-17.03533178059208,-2.9403938642246152
4.871595013410633,-3.2365414171574494,-2.3806845483526766
46.09523985151717,-9.042581858497751,8.447956192790977
6.095225035932225,11.476074307556813,-2.5019418742747708
-4.882194355107261,-17.00299877983498,-3.406065947179575
-45.02980735160272,8.83357414693765,-4.8040536138437195
21.275637423368554,-26.439809568377566,8.72240568242979
11.915765502213192,12.581808398654713,0.5318078424257823
32.970943728439714,-19.0997076675528,-0.2338035048096571
-40.86904291521881,-35.44232333393548,0.3319364523829183
11.300730271688467,10.553509232890951,-2.390669879212546
21.357671777692524,-26.541755877351992,1.045515039120527
-3.7552133674217076,-34.69707812685518,2.3591439779170544
2.896691110832272,-7.73037326746383,-2.6711041545392544
21.56269548552581,-26.13334892640798,14.770215452890366
17.744867820154102,-11.477800288184458,-2.4750076353467634
-19.44732942059659,13.267060606803321,-2.4646005874349703
-10.392576555910283,13.58469052551289,-1.7906373688580082
-2.050191045862193,-34.87366429867781,5.841029433013864
-35.87581655057133,7.49615181971894,-4.292283894610972
12.828901017067679,-14.793186701719959,-2.7818986538360644
22.451490495196413,-25.889130346041668,-1.472779443046656
19.639791448936865,-27.73069705059123,-3.136439729198666
32.32144053152599,-19.25702525695363,12.685611931093552
-15.529251627911208,8.005205362287407,-2.9212183681092507
5.053012826117198,7.02987666731325,-2.453137617617464
45.17689234204083,-10.019710892178264,-0.28394145696396317
-19.747452334732788,13.471805885973545,2.20642711514173
9.925553802623547,12.468862254363628,-1.2739527403018516
-14.973784261199405,4.299531273349377,-2.801759547495807
31.5883797684269,-19.886582048900483,4.836539843613651
22.356373195630905,-25.779449246377396,7.005440698628373
-4.839387497279138,13.947358685788636,2.2825596365919893
-22.134260934253444,-18.263037380570356,-3.7182148213740693
43.323899449360404,-11.866398753767719,12.728171187337983
16.76759040969419,4.247097328651254,-2.241225936182618
-35.26592001154031,-36.333516227582145,-4.67350597812087
-30.996883030446288,-36.126232432066715,2.631392770679437
32.575267181835464,10.856800075236714,-1.89812345554375
11.197895464555215,-29.88372195687124,2.945543583726889
-9.598084332449213,-35.04234512543085,8.393359619900007
-1.6842808640357072,-3.26732671630207,-2.4889162282708113
11.840662036519637,-29.38340929801187,11.116289072052757
-24.53504684654706,-14.79384710117724,-3.7122552106331543
21.312676698337288,-26.485839276312355,5.2562180615763605
-10.021023198185816,-34.899766952786145,12.741147364010487
37.679710952444836,-17.69970562966446,1.2775871125541902
6.865804032598495,-9.206610933404129,-2.653127724654792
-12.52270554473581,-35.29181929834692,9.624734200879063
17.76952667703715,-28.66852264371768,10.005971885818099
49.12891124009151,-5.927955692827288,9.527958791285045
45.633689655740596,-9.535032192819063,3.726581491732826
15.355388302235182,8.752301653106139,-2.2901357686476262
18.141014641054365,11.244292132485489,-2.234429871796107
24.802705699772968,-24.073921989800645,13.577355085340944
-2.714780641651304,6.736913062963027,-2.649246960031315
48.07486724126332,-7.001684639906506,11.223029711070973
-36.84637171911315,16.216721322747627,-2.7212953848417514
33.15551952758077,6.68600632259161,-1.8697155752004473
-5.313957052138154,-14.975934024263006,-3.2623593283971037
-48.37767927187928,13.891033911880996,-4.023409641584233
31.64679196626927,-19.923355665450767,1.147654483495085
13.793592677778406,12.568214367547064,-0.3435414002311009
19.565124055449626,7.331356323023342,-2.1873658989413
29.438037592158064,-21.15979960509691,10.272663493790718
-20.585693021174844,-0.8125945004463933,-2.9269009793864664
-25.379670668192826,13.479766679326891,6.2682052199007705
5.609487303302815,14.134965926312352,-0.840655119800159
-21.324238959450334,-5.680619398743728,-3.135202740402429
-15.67569723649587,11.861671650102947,-3.039336529415322
18.07964009456893,-28.384946681250565,14.182408380513921
-39.02606094154556,-35.55911148692106,4.220383527444835
15.469528288932558,-12.314165655272406,-2.5619460446428706
-40.19704194696522,-2.5760061957086564,-3.7177824961254244
-0.38389383738841365,9.725294331745271,-2.6292618640437664
-2.792465161112224,13.847673590511588,-1.3038638334735864
-7.292237927663064,-10.68922177983494,-2.989226825640534
-41.834417118310306,6.092817569037515,-4.425878985518444
-12.309260355639612,8.6206760459187,-2.8934678342948223
23.74203888712783,-24.80569395384519,11.110092724286083
14.632315539393518,13.007401671696282,8.822446695166718
42.50232697652154,-12.770611722436131,-2.4532748668207307
51.20451778532488,-2.380144326681053,11.841620971359058
-32.8264088339857,-36.41091455486743,-4.5248733868566
46.076937910546576,-9.038991535507154,13.929649107676042
-8.247049232495714,-35.13873022617249,2.885195932432177
-22.450522738429232,-36.65100640331741,1.8472108146984716
-13.55625032285517,-12.35195674236873,-3.2982748876203565
14.842505464831207,-28.423702947359345,4.957759476518122
-34.86960380696356,-35.925202443466176,4.002030667036145
17.373469607849195,8.013142115377494,-2.2406617555095973
-0.8296487513868036,-14.11229070582204,-3.083501207070451
-33.0934555573902,4.405759898675582,-3.909889054020965
32.47862833125364,-19.350677315143546,3.022100882561622
-27.451494283960574,-3.4593540682826704,-3.2403699780105515
-9.490459040168439,-3.960437269415863,-2.643088327209476
-27.965355002055254,13.136474215265334,0.5688101212583639
-28.319961417943848,13.303047392632324,4.445226145571852
14.792823861042866,-28.328561655252418,8.633305605250294
-10.975395060074014,4.670537756241171,-2.7554705658770695
51.65054339950489,-3.036488528554094,7.999618965164803
50.239406478139514,-4.814380708470919,3.4116328307772057
27.468166919098664,-22.4215516366118,10.518734823316569
-29.48540609530699,-37.040700642736795,9.719561023051812
27.628529566011217,-22.552451502588426,-1.094513202717179
11.229877267468924,-29.96907150393371,-0.1963764890583151
2.1668722996229115,0.005715632779786881,-2.420466088916907
-2.0679986442144425,-35.176570804954586,-3.689017292898631
27.183456014122775,-22.750666638601064,3.2718010994632807
12.596347512963034,-29.172320444559723,8.583956525352464
16.71115025964257,-0.9824333438248946,-2.1690407104268754
43.78685412903181,-11.417450460220156,6.428830383015854
7.907406080828142,-31.218532589776416,0.5928782708742617
-8.718399002198511,13.687843869060899,-0.6974711778170818
21.48396855382499,8.965415623775424,-2.1486979083285784
20.525930378896323,-6.44305854889448,-2.252253391320323
-17.58877903516384,-2.6564828329678263,-2.7502905369332407
11.407127589193632,-29.341140590167136,-4.079007304988453
-32.41839929130836,-35.95835208691284,5.068537797925034
13.452194125051442,-29.165997860186327,-1.7755113327443086
-37.82222501697859,-12.09189449389458,-3.6650442830979797
40.8074011020204,-14.479816518568239,4.533129179347526
41.62059168649223,-13.627926987217693,8.99104838931105
26.666893220376757,-22.880619269993783,13.306940244741849
-32.69770099135552,-36.268152357386455,-1.4986028517236796
-28.83809310698919,-37.15424779884848,5.508167601327356
15.746479240065606,13.655612385033015,7.313766889520271
22.34278344672636,5.079182638592384,-2.114846144147504
6.6451709894899125,-13.524574099199121,-2.901390764888903
29.138786839081693,-21.491892714844518,3.341922389108488
-5.974750995824411,-34.980864599059615,1.0890828009718942
-23.91594178413821,13.46500958470466,4.935983132038673
-23.268364640226917,13.10041459913799,-3.4599385915979917
-38.631891466379344,-35.199958757334265,12.073456718446646
-39.41883340101169,-35.91699130717932,-3.6048567966480296
-7.408452777354547,-25.80108540784567,-4.150368546090517
-3.5279189631909755,-22.300867860945328,-3.775129407154572
-3.338481306633463,-34.83798426836482,-1.934649196141385
15.127379862951866,-6.2192688168267765,-2.323700118266316
-19.14816654858964,-36.0521196296536,7.859857416433626
-48.52461381567345,10.76219669796092,-2.136162623793283
27.13523918872285,-22.710312501125852,6.813025269970038
-8.061662134921601,-18.317081103228357,-3.599152454185672
-25.726517467858006,-17.750355993614754,-3.6604865130178665
24.85540539346901,-24.125073196055396,9.357272928378919
-12.964538265898486,-8.483111631810024,-2.983101699272717
-51.11701065707114,8.086531536045431,0.9527591745465376
9.269952264849053,-30.271263498213298,14.266455360088422
7.829678526076926,12.782134346651729,6.101394557542605
-13.97579724167317,2.387073888658875,-2.7298877807483004
10.584579967604428,-21.542250200510367,-3.4099977491292126
-11.601315232734407,-2.1916730427130586,-2.575249808407494
18.792360170173527,-27.96479013107843,12.28907481330709
-2.5126488019686786,-17.252313377566914,-3.3568289210704076
-6.882145524630238,-0.8672671102298957,-2.530063963195154
12.264034124261928,-29.388500714897766,5.7270920859982
32.84659715767426,-19.027675056941348,7.30884426886385
48.11291604934612,-7.007226116574201,0.2983354517207348
-14.534598411411926,-5.243849999645937,-2.7788799415528596
-5.004789407281691,-34.363813667672055,13.151223845111872
-6.287855628481152,14.084775986183669,6.2784725059722115
-8.315909752150308,13.791627961629354,1.2873601134364971
-26.886871177389953,13.034979322472854,-2.3885061514902923
-0.18176681189393676,12.190377844200672,-2.659272528270324
-11.362576306300873,-15.80789774436606,-3.5011775546068833
1.3361790763664674,2.8445016223214807,-2.4837645580463206
43.334898062117446,-11.869411269408557,9.22429023432118
30.211803401126527,-20.610635943620267,12.83328287267545
26.457271006937326,-23.27049349189659,0.6486704584014298
14.746438412229933,-28.239732567652435,12.06499548265896
-0.7469715501528811,-34.093548173043125,14.866573468283672
-50.07150888295419,9.18599725123655,5.32950441844152
0.6993385681607451,6.461684746626408,-2.5530257042118123
-9.792809907132376,-29.907890098801115,-4.4710095840778115
-6.02962608600357,-30.736471618236827,-4.449981701685299
-13.574527823766264,-27.999782114135343,-4.420785640800731
8.145437236358374,12.592979792942861,1.943287660055801
13.771647173110962,11.650003027796798,-2.3372660114242554
50.76436146710215,-4.236700192399123,13.092714634432086
9.913082375149198,12.771757052390758,5.231202029274068
-2.8876494163566706,9.032275798530565,-2.6869489410322953
11.899630492637925,12.877684011718415,6.88744262390887
-21.07135236488339,13.26554830470859,-1.3764228801513765
19.04392066167384,13.84155407022088,8.91586692192034
38.02517500462629,-17.29561460999867,13.51648387480689
40.016209702098294,-15.314820685207584,-1.314933257097004
18.830675689177568,-28.021807208125086,8.236912190013816
29.19731346471281,-21.535060193503536,-0.667910212884718
-21.320232633717662,-36.804133480940145,-4.452858186842925
-18.18409863827867,-36.36412234761243,-1.747362388539689
-10.17396214909947,-35.43240056108439,0.6786631705375801
19.481982541814393,13.441855315654015,-0.14523422652487333
10.690981683428378,-9.173032625116045,-2.5334491162417576
-9.757253853088022,-35.623468720773474,-4.785825236305537
38.94469045988164,-7.144698202544449,-2.1887725142319927
37.86433564445446,-11.37704128318531,-2.6725904934381575
-11.287598341074936,-12.52015658505528,-3.2457026249176124
-6.518281887232168,13.266323247779356,-2.845988899378153
38.8216514348091,-16.520406581582076,3.372571487474356
29.97959164056023,-20.99592827312268,1.1232451991509997
38.81130767046166,-16.516004831880863,7.052487171623346
-2.429666268678844,-34.166341141312564,11.549122886026696
3.6679723868120044,14.06697339394954,-0.9826915706833579
-49.0195172005523,10.242491416096065,-4.003078140543849
-20.27832577840316,-26.126066592592004,-4.285263331045889
47.59636914388146,-7.529578415008795,2.071030167748092
12.880295876680055,5.0075482921441825,-2.3106479588046946
3.816148751766404,8.967648340424176,-2.504860343471564
