7.579778149260572,-21.02368288444487,0.6858536665011059
-15.392466022509351,-12.072388905145155,-2.2909725501819866
-25.749033099844713,4.729713610299995,-2.0927260056661563
5.9101465903431505,37.3063231970447,-2.553276443218351
-13.908798005512175,47.532367933757406,-0.9117579948551329
-1.2146574947940052,-11.200036100095053,-2.1691150120689344
-2.9586238809504612,15.679982738677102,-2.4671040473510706
-11.672686201919651,-35.622640886107256,-1.611083073847287
20.40446243951681,-14.296770671053844,1.070779153784657
12.168429524874075,-32.49554387443543,2.34558746486767
33.32328624618169,2.5390891952395642,-0.2050643890369812
-15.271664547224129,36.618409468889475,-1.2176058606683593
-41.88168049546775,-8.972266001004613,-0.26281690764373866
21.6731383862019,-2.081724661196585,-0.9357527331957198
-33.49646029423357,-21.907276139053078,-2.2125217676335907
30.470512463642358,16.8668989753044,-1.9252390465797724
3.1973878230608075,-1.5028033580976494,-2.2069598518603195
-16.6846767798666,-1.8911400901769293,-2.3855813565390247
-15.278949722686969,25.352189292705173,-1.6362920947927904
-24.761257621315867,20.22105517290745,-1.3739562617939487
-33.6289433820223,42.87737683467588,7.060650297826534
11.315950019532886,45.643701327560215,-2.5995470833605094
18.132573748267937,30.418905809831376,-2.3938607464218484
20.666464039065115,19.29145241939463,-2.2599069598197743
-3.907991494202995,38.71864697377729,-1.672500656033962
1.9985890994770608,23.88376795247973,-2.509146775123519
-34.48431489620364,7.656185306598876,-1.084066964733993
38.472738494236545,20.683848329720586,-0.8041486869145924
15.695514900272412,4.384413149528215,-1.9085287481427724
-14.352490294021251,6.531991876299338,-2.4380856143080036
-32.25296255260787,-0.869792894244723,-1.3866683765518582
-0.9795770568856186,7.084046698021296,-2.313949321937142
12.5644264358914,14.63706125920428,-2.259134395221579
-15.366026738854359,-28.07871385174107,-2.1636893432368263
-8.339539380361185,-7.2289737006546195,-2.2657970600285253
-23.14688877443428,-14.340017198432378,-2.1765883143112665
-28.378902342959663,40.088720862788186,-0.9042342885708483
-8.795192043960991,-16.55077044006786,-2.1950082808438336
-23.443066779340686,12.457805222441245,-2.122124046879074
6.363707741242947,-13.371195866364747,-1.1837250854006853
-50.87450491648897,-2.6226109881008197,0.31258047986948745
-36.71418250198724,-14.785358496168298,-1.701044218448709
4.811384945928836,16.000161261609797,-2.373705468764922
-1.53910136202677,-18.392745059808096,0.5664322718937077
8.651616772405886,30.10561444711466,-2.5039414899401473
15.10371562663131,-19.751878862249896,0.7630823495906562
-24.761547655700596,-2.8066204748436463,-2.300115780771079
-9.547633826777883,19.442618571097828,-2.2676413628867738
-31.172429904265638,-38.171527694365594,-2.1180672767107884
-40.7598840461154,11.71339309729612,-0.780753795523555
-22.058479967043574,-31.482034391980463,-2.12498866792115
-7.854120119744073,10.01411386178452,-2.450422143973997
44.99788202267369,16.850112073128546,0.29483054001568776
-39.58052944558995,-25.886364728625743,-2.032596419102427
25.042741697979775,33.079900255882,-2.293546091499339
10.231367056202286,-0.226416944190138,-2.101003080334633
40.403833324164,4.5796097823337005,0.2495053830702148
-29.56676482592428,25.380056489756235,-1.195833849613972
0.7204165174962776,32.55430308106995,-2.2011391953334885
-11.807529664538183,-43.07175786558311,-1.370608646939541
30.60686753628942,9.365355953104025,-1.3756217823799644
-29.163235855622467,-27.22290450078246,-2.205355289407225
37.95625364896355,27.574701236689066,-2.016318954239429
18.20994300945878,-8.019293877903975,-0.6106397092459995
12.299655090547203,-25.843596845054776,1.582165938595832
26.585592355451077,2.3541783758016708,-0.8190843221437705
-38.35202786978101,-3.3961069391282215,-0.7088178133809507
-34.59678811368488,41.94908928249,0.33364631839482256
-20.803245633867068,-8.082529353129212,-2.3365079756905898
-27.470191884715558,-19.446215196213316,-2.2751133086555915
12.881266840297044,-13.799388047369966,-0.34752711395411867
-2.6472932605399424,-4.2029793666359,-2.2383807335331483
-18.507148769886218,-48.32560066216899,-1.5881137904700324
12.86536691494771,34.869156499876446,-2.51239951717739
-11.968726859719037,30.805748288560245,-1.420381725962049
-48.543056807252114,-8.543962329320477,0.30243868959154185
-7.304878194654187,-31.093593186078976,-1.7656356079712232
-14.978113038196074,-18.341125744855816,-2.1856518730113077
0.9650687052123524,43.609687396848194,-1.874711409525489
17.261847044330235,10.403160455532088,-2.1099706056547274
6.668998712895914,-35.344061600988084,1.9882791029869518
4.122264264451342,-7.667567104642139,-2.1239176574834744
21.784931452030257,25.37858594802704,-2.260898368460197
41.67119378862382,32.68292792215778,-1.625273605824994
-4.26040090043703,22.57908246087585,-2.4055310107162815
-16.913973511211868,-39.72223371628278,-1.8554997710015269
24.34959889930061,-9.669387471052493,0.8040348037861426
5.829819766080419,48.22633585598356,-2.0877554564465206
-29.422509077994103,11.683873801052885,-1.7500108857998116
30.148730619605363,-2.522839968102998,0.18563917379418077
-9.849557904207403,38.92216219179648,-1.2321449050852278
15.88495257557029,-1.5257641477320854,-1.6706600206400335
-12.029365631065287,-23.32309035347609,-2.0977416929193913
-38.326999492124266,39.089908096528575,4.376104136436249
-20.044968825629034,5.760433450006735,-2.4425511781442926
-18.123560207322758,20.396635634606554,-1.8444254619295863
35.842488342683545,15.467107140019461,-1.1980270650726328
-4.501660880308386,44.60046002630072,-1.3757088586310093
-1.3662335958326615,1.5761239903511033,-2.273190075507682
3.5719110217038286,3.9601955979711074,-2.2474682786879123
-34.71373674962508,-9.239299886531033,-1.5438627434951189
-12.379913136563696,1.4965404488000942,-2.400998412480889
37.781090407718594,-0.37231555552410456,0.6955779365855134
-9.29399477986622,24.819424274969606,-2.118519550400803
2.605679672168667,11.091210769118607,-2.3390075316419163
-17.194481465200646,-34.36619807481124,-2.124262860887798
17.117111485955217,44.695955300584295,-2.6457608654773104
6.780107505664863,42.79773404103601,-2.3953423291531126
-20.446590116781916,33.9267968308917,-1.2156546434387783
-13.636073218026462,-6.285708212621559,-2.321522243203755
22.332656692839286,14.217757381906953,-2.116271323911613
35.71397906300986,8.110588299991784,-0.6742303832929556
-21.060750775019027,-19.18129894552172,-2.277109779643706
-6.899216192688725,34.2517197937498,-1.5016327987145695
7.5897337168952905,-29.992091989769015,1.7102106047115229
-10.902970715376801,14.258356164297872,-2.325725247417912
-41.80371184214838,-14.494542645735697,-0.8145483537710736
16.556135587968015,24.257101919416954,-2.347623611562234
-30.961053838494603,44.894608424027055,3.0146918344396485
-19.022402287658977,47.23537473888935,-0.9374631302725442
21.563360666544252,2.981766535248364,-1.471506370429823
25.756117082965112,19.198730786892497,-2.171531227162461
-17.858333452915893,10.35038811521287,-2.4173411252870296
30.68451339695304,22.29188099909506,-2.0965933907390726
1.642108378706696,-14.487582214847306,0.6266326700925077
-28.291543382382564,-13.893051268872242,-2.1305957324412415
12.374594818659444,9.224081167011338,-2.192746035818077
-10.451059955189914,-11.877007618099046,-2.247627981677951
-28.475681914694327,16.504023762324266,-1.414519480117528
0.8859729223510943,18.970087890915366,-2.460677137074395
6.6821571572626235,22.22137561079766,-2.4292765263525564
-5.600111107754515,5.573098506494342,-2.3438025255664288
45.096636005153435,12.002779963751513,0.28634638002427
26.063245394227085,-5.118829139180916,0.16297927636654308
7.779304180437834,-4.382112371951243,-2.062619671108956
0.8406680471873265,37.98824948353416,-2.100486090061101
-20.566694770680847,0.9605403398162039,-2.4112652192453212
-47.752987159501515,-4.8198550886478015,3.244399486718995
-10.235993601884848,-2.8593407245156146,-2.318158922500102
-5.558542507952153,-13.054160483129914,-2.1936950864153335
-39.39877565453989,-19.34744961422538,-1.8864247374535428
16.626111363710258,-27.58751943980166,2.1773417093760283
-36.01025509005359,12.29105976260002,-1.1677282409258414
10.978891929741504,4.5787339505743745,-2.139318104602218
-10.6700570964977,-27.861499612890416,-2.0167656182536358
7.897169499087929,12.53795374854812,-2.2910117963209253
12.580455945142448,27.642543846719345,-2.4277291441049256
16.043282345684794,19.645455880326903,-2.341084622520538
9.165096675585815,17.769713251629007,-2.3415742896998086
-19.83973749474767,24.666492051645008,-1.3604733812979888
-27.82189100099749,0.6156897223444086,-1.8811600610243775
-34.827082617514236,2.914323561694305,-1.0725524366439665
-1.698212236351711,26.591296829008044,-2.459366685518715
-24.06383678804037,38.842558269720946,-0.8411936346458375
19.13931701409244,-21.539789697276944,1.5928521039883259
18.03661872451795,15.634705522864008,-2.20316633749063
7.793176973056604,-25.468838183576832,1.144693704303408
-22.04509389742595,16.68897390592297,-1.8690624405244611
9.209547035489987,-16.63729759336709,-0.11668333607572035
-38.93864680604995,7.647561801924733,-0.7305494332655242
-3.4448027580308,11.257940673226413,-2.4170224846280344
-29.3360829536614,7.272978282154773,-1.6707788076197372
5.540813377063618,26.488643191646705,-2.4978072471298565
34.37063596563623,19.580636969000356,-1.700068801064302
-4.949518669225101,-18.964709629853417,-2.0519316987976945
-25.100637536447095,-10.46819132610752,-2.1739599609286593
-9.290155548844409,-39.54402928751876,-1.2466170934335452
-29.919528041575447,-4.51209498765997,-1.6726389290775896
-13.890260643467917,19.621716686498324,-2.2189395690804337
-43.83377685631678,6.393860090347265,-0.2718103627831459
40.72683754430454,16.985079637998115,-0.2707616171026711
-9.863755008329774,5.087435399518824,-2.4208052902144246
-12.194564488169682,10.210569501687953,-2.4590865853215726
-16.773565808809067,2.8687341893163163,-2.4176327952206207
42.082355194634374,22.624463094397132,0.2931692615389352
-14.606150690987143,-46.49562780688001,-1.4956664307535577
-42.36262987398089,-4.801631385313096,-0.26160151958274686
29.64771216396082,5.218232071482864,-0.9238516836998614
-17.651391286115317,-21.61463105029981,-2.2307383972825843
-4.0709223002323816,-8.136454850359724,-2.219702803514977
7.871333005954048,-9.544101318132675,-1.7575914310909333
-8.821171293201399,-20.716399226216172,-2.078242904761658
16.4692639269465,-11.843459283178612,-0.1244722352883257
23.094858538505214,36.666588987165916,-2.3954669283505745
34.20309884246347,-2.4398468573321765,0.6312739118449553
-23.61921964882918,8.386734716556214,-2.313399138865116
-19.20452979099452,-26.70541284926929,-2.2235403885454836
-6.6202742762565805,13.910284324212709,-2.3818591329969303
16.38306446346305,-15.908681898396615,0.7008250179977836
-34.014302970804586,-17.752320192093652,-2.120974643427758
0.10833022595497734,-7.37415840603493,-2.1878428324893706
6.422555306222506,1.1304205833643433,-2.1988109560232703
-25.62428606638573,-29.12047602096855,-2.1442510438205487
4.657069414394505,31.927026652198705,-2.5791462558118754
2.9122494750372643,-11.508236969900423,-1.9848606879799289
28.521688013966266,12.72538671771651,-1.726475898594911
-38.18591827479758,0.8450423955450577,-0.70316910020914
-4.269900544428357,-21.740804913091456,0.6799552843235694
35.49927526328774,24.481669653364623,-1.8533145873114332
-19.402721051703033,-15.60598448874009,-2.298264931037229
-25.92657834045636,-6.560923654855871,-2.1378122815878906
-19.83044205489681,-4.248253626147997,-2.3751091950582217
21.756538871989278,-5.964255717874065,-0.4153122074040663
12.157614732565683,-3.6558984341626513,-1.8036441074547425
42.006863249027354,8.46131034811966,0.2629310314955745
15.949000124773706,-23.744892412754943,1.5812168517619545
-2.1819783246209563,-14.958780710755317,-2.1476939741255805
-6.367203869418146,-3.030321667474332,-2.2816190451908867
6.920211809145433,-39.317616583672496,2.206867507035738
-2.962280580257143,33.45285334309773,-1.8564935586488391
0.671015141989119,14.367500290967467,-2.4048996471126243
9.71188179607336,37.21230902051055,-2.5997292505645797
11.366377218469834,-21.141890589319797,0.7366531640283311
20.483058082373038,6.82165696469838,-1.7257621739462345
33.14604417800485,12.877984508950938,-1.5282873507037025
1.9712867149017077,27.634568191850587,-2.5571415622479505
-38.612299172266816,-7.2856757774154595,-0.7233901084974431
-27.43516617912647,-39.15568282544355,-2.0547999755430815
15.726373620810692,-5.367743092598943,-1.3283230552305176
18.170163588653924,1.3844872832424482,-1.6819606261486062
3.891092226292522,40.510727410721984,-2.2497197508805
-19.024094112577526,-11.46521012879049,-2.325375683938299
-33.521270970563364,-13.023768566799967,-1.9879839317597636
25.86780872932306,-1.52645850040819,-0.4770508739326691
-6.82713044772004,41.78616901734704,-1.2993891680090757
25.743869456690106,15.515002769775165,-2.0318318524829997
23.937114913355277,22.34449553323126,-2.2135189103364716
19.380425206141375,-17.91640171817642,1.459000455213431
-38.2950245000945,-29.28314637802624,-2.0718784595962405
-42.198844206239144,-1.1380118888631863,-0.25902625367667925
3.676471231135037,7.579099587365458,-2.275607342613792
-5.929963720829827,19.37968134978201,-2.3734987372680414
-29.873179157110833,45.67641148754611,-0.334889678704112
20.909877390921256,-10.784701196282452,0.4331336097149167
13.71137509008622,1.383931036179398,-1.9578817142490796
-33.43426643218954,-5.884695602078669,-1.4590218528092587
-12.263256179592988,22.810119304896517,-2.0701715221771657
-32.1753578616166,-25.235295806378588,-2.260434537729075
27.599776931249373,30.600010594883493,-2.277964277178894
-8.109930050082065,-34.52033819391377,-1.5240040776477706
-29.682278080752077,3.58812935683552,-1.6527671410940628
-14.008189342893866,-32.8980396387356,-1.976588852329493
-20.1597568729828,13.759585515135432,-2.2528331660243635
-24.442982762121257,1.4423795692549526,-2.2600026997219618
-20.300245606368374,-40.57361444063943,-1.9498508219591881
24.23962556826648,5.192828124143061,-1.3703577456435692
11.051923995401976,-10.998614121668917,-1.2463821013003147
2.9503924148815974,35.258116750574814,-2.3917023695354303
0.8040420581726572,-3.9917321779399226,-2.2087077480966784
-39.729842228329794,-11.625643206221481,-0.7620912414146009
27.24085883098955,8.702387211054761,-1.5808355201081317
-35.684911587191216,41.167078175860496,3.6827740173439154
32.23060435217489,-5.512306548369872,1.003494848331234
-37.20999350819059,39.86216154247434,-0.3345991627541764
-27.28428274401338,28.519196232667802,-1.2112639660445033
-7.1842298012162145,-27.527289257711978,-1.9231136405048623
-3.7540126084891523,-0.8525303407586132,-2.2753718708439594
-17.028907869629553,-6.3767224853306415,-2.356101452089308
7.43707462053389,4.358577650579724,-2.2155380138596965
-11.894966022176824,-14.936165376690727,-2.2361622995789814
-30.99718852023717,44.947004973441096,6.3942944069667025
-10.562674958522374,-32.235114551630815,-1.8751677252223677
12.613714295852855,18.002391273829826,-2.301271207148658
-10.866718031075383,-46.254749322631596,-0.8747269539736897
15.312003716604515,32.57805751253308,-2.4333223581757646
12.424383558942313,-17.550983416038243,0.13194573812072596
-50.42294735704541,-6.3428723833588805,4.690697012253074
-35.05514997146753,-2.6710496639644994,-1.0789345397596908
18.843513959814874,-4.18362479109909,-1.0670245452042286
8.54513453044485,25.035471323349228,-2.4416593806654596
-12.912739329062266,-9.625216615587997,-2.288103844229205
-12.604872045985543,27.34472430294814,-1.6644704171989082
15.044037758848486,-8.967683645145549,-0.9681689127217639
5.925273323722072,-17.089081364269145,-0.11098285205706247
40.980192028215804,26.801768757282552,-0.901464515861835
-2.4126520553278348,19.179485290580793,-2.5047151037076785
-25.327153112434242,-21.954368869987917,-2.265746940244545
-26.924427721980475,9.560351106287953,-1.9313650566979272
14.161596005825482,-29.75584072584016,2.2276136733897554
-1.6118359015433958,41.06243181509983,-1.7661359320630223
-38.01258386392759,4.122510809265483,-0.7039093351942014
3.770611520750416,20.527585569456946,-2.4442798234685337
-46.673971799792966,-5.871276120657244,0.28864853001642277
-25.25768777694254,16.345156541209615,-1.6630912466609493
-21.336157633230997,20.21559637258062,-1.624787023413553
-2.4258919134576145,47.058466024136735,-1.446106459604621
24.798280536169628,12.17762418304192,-1.8675230957935185
-12.06962749864829,-19.694217293089935,-2.1319776376275663
15.436104159454114,7.580165690518366,-2.013987034107423
33.41167702334217,5.880719687273798,-0.6245588441941751
3.2688113778204593,45.82397387646408,-1.9744222881668836
18.75349762297295,21.847085096353823,-2.3015481843826175
38.86049067575268,8.32503985388415,-0.24385826614633777
-7.118923165311841,-10.160182580987318,-2.231140588578319
14.497759979802613,11.95677757785446,-2.2008309741157923
4.617370572508713,-4.483671526098079,-2.170092060176237
1.7761075623111724,1.3239189287553326,-2.24260038217208
0.4015421702883582,4.1805139684290005,-2.2780564191709227
-13.13669670706112,-1.652509325997123,-2.3811744248731292
38.45271791963956,23.822321940006674,-0.832751059397847
19.54545006899414,12.783069260522467,-2.1556091789876675
-14.464670007592822,-37.76993826484927,-1.7382392807000946
-0.4016905197582601,10.233293328775927,-2.3658322464870345
-4.3364708275368615,2.731374340639462,-2.3094742812540523
-0.4346931550899638,29.59004428722135,-2.3655831218878385
42.39071063832464,19.540496280552045,0.2864140896966304
-18.806469068092103,17.38580300176408,-2.0472973190913284
-31.584129546623892,9.497617114366705,-1.4174641005292004
-15.46053539058988,-15.158795733155728,-2.266782119217635
30.869576966787005,0.4534901562746205,-0.18943616706775826
-22.104785878755045,-11.193677107138061,-2.286945440901114
-9.100668256935306,29.741843153266668,-1.7193611862769034
-22.54968823005367,3.8566076123185202,-2.3950193460950033
-4.031532834066167,8.20973621021851,-2.350738695364004
5.591747476536898,10.522536447232733,-2.2943257955727954
-0.7685581855424679,-1.4044050382714106,-2.2437994010032365
-28.86338106297495,46.58972593086072,4.3810057591878016
-15.813963062274322,22.339185049390526,-1.850157342317912
23.382142040258866,0.6305659818277306,-1.005280581291875
-20.856654472485697,10.11715036356603,-2.4268299798666892
0.7095739791679503,-13.764612844062603,-2.1310100670763448
6.182963114325497,-1.85926973879174,-2.1769570141658443
10.008106679688106,-27.75902631503575,1.6311913292185758
-1.4146256969779558,36.03839024209839,-1.9937188901052398
-17.39035629499313,7.40492158182629,-2.449078736634748
37.064610585670046,10.845750047788554,-0.7109672102760201
36.22090674685965,5.0086018262313035,-0.22436628189882202
27.262251652603364,-9.305181634710022,1.2380444475900816
19.87228414711766,27.633977930333046,-2.3008543762674445
-40.514422928113206,-23.080696212809936,-2.0039578692135063
42.163291786520446,29.847496111507375,-0.9510279532959321
-1.5099104525282196,23.642791029851182,-2.480222120946281
-5.008718001004669,-15.944206854447694,-2.165466671892459
18.628434644387948,4.471567393912168,-1.7682388983452386
-12.594862659919247,37.81798245465487,-1.22327744873348
14.217132529279661,45.25726980006924,-2.6223399384917
9.271571117943921,-13.444101644178724,-0.9027770788260437
-17.886821970231544,35.32211675565022,-1.215073341074048
9.640190996637115,14.896702499560982,-2.299114378761142
-31.86161376975992,5.852503575905693,-1.3922544268369326
-9.381146926034353,2.203931054565815,-2.3510883461249326
-27.88212561621052,-2.468987574903897,-1.8921464011876032
0.03988557999608421,-16.49785378275405,-1.1152224624665679
10.720311719103785,11.59631284935034,-2.2436354040879367
9.398153147632955,20.650194364532297,-2.3752461269153753
6.60235685396813,19.343535797491114,-2.393715813773175
-30.501484697669984,14.335994307610404,-1.4484642633990346
-31.13493231447028,22.974772573062157,-1.1874890705524248
-4.477797185225724,25.44088500809829,-2.3842786214831486
-36.91281425145596,-11.294904461745727,-1.1846727222507265
-15.254045090461378,28.373099550403683,-1.3844744585989908
-15.057321944847372,10.82809651715717,-2.403105467553877
38.052889991183875,2.8994643898701864,0.23416936071326733
-19.631744762547545,-32.93389030730552,-2.1194821019222463
-9.514946425019621,32.51668002977574,-1.4561001181950195
-3.0934865740126543,30.64889336504123,-2.082325312339329
4.682053210762415,13.185875901642055,-2.339573506196299
-11.296491996102464,7.5086345084490524,-2.4394577406948508
-15.012905668004596,-22.586419478271498,-2.167938820871095
-6.998497434355068,16.781002746997096,-2.3558688799452017
-22.48719556235471,-1.1592283064024271,-2.3573256534386022
-9.078184060255126,-23.704823638063527,-2.0290867757044895
-27.593042023592567,13.805660102707488,-1.705596710524573
-5.538145975072733,-5.703288499773799,-2.252597457460746
44.7974171467103,24.797532049049437,0.9426357109731884
13.702610826885886,21.174239911490236,-2.3279091611505764
15.355654739852133,14.69073750268111,-2.224803405781461
21.634194778531942,10.955373743591208,-1.938456420616985
-38.82103116649569,38.63377469689508,1.6808186001136438
-32.11707107417987,2.291041969266428,-1.383831553554337
-31.981264847310793,44.02183690549255,0.3338752929254553
4.410633813344169,-14.414367756236906,0.46261193126532546
-33.58194528599562,42.81745359977206,3.0080800142396313
-40.61582762283816,-16.938783080975664,-1.350524789763988
-2.3915593276155303,4.722747167646046,-2.3078029901465333
-27.72715324876478,-16.710264172846493,-2.1883622912358023
-15.545623335621556,-8.856199440009155,-2.3182170473079107
23.099956661328473,-12.275474170779864,1.124260364669867
-13.954277170255006,3.825373047210393,-2.419271572482747
37.81154597919415,13.632394075678855,-0.73996490244336
6.7718884828777774,-6.906684633375174,-1.9857912495644545
-21.888283154101053,22.878968390875972,-1.3608080919085983
-8.104269384528987,7.3096715607397,-2.380523077589539
-9.812037438924666,16.74235506692166,-2.2726755068074955
22.127820554387743,16.920532543835684,-2.226697242943882
-13.844785965871436,16.786996546352157,-2.2780299487967954
-23.49703776765685,-7.825429713322721,-2.2858801123324386
-35.718221298644295,41.20550515898622,6.38638102909056
35.464455261554534,0.9563999317720414,0.2176890186894378
26.97300628079159,5.433087822115424,-1.18252604993463
-9.923846765176751,11.736369486876285,-2.3763380889649626
-17.7402685147461,26.411735153335023,-1.3674110411891554
29.104453315144283,-4.977650026130187,0.5435883786856662
-10.589640346578511,-5.526812832617294,-2.2999317373326837
13.106924518531194,6.237933978087812,-2.062244273980887
9.193167768653266,2.326403086607767,-2.1906752685686515
-5.6174872881295235,31.91610566983571,-1.791426405616078
-49.744424203600914,-10.01986291573267,2.1808498781111934
9.662114744011046,-23.167826463023093,1.0788261709161877
-50.017594744247816,-3.194296689392834,2.770581045438391
5.269908868824155,-10.097399942828243,-1.904416158441245
-15.512498709072364,0.5338082629326282,-2.399849166609152
-2.417364308339939,-18.127304440972022,-1.9145597575166315
-13.074639032503253,12.696054133726289,-2.361403040446292
-6.980452142790682,26.226833315740762,-2.169470676142164
-31.095741635437687,-7.061793866289325,-1.7627267216742828
-3.817046128505857,-10.749791660980646,-2.1963886679567928
-14.80458377530787,-3.94034183591078,-2.3686647415042517
33.4392258713489,9.340973045608184,-1.0655116724713907
-35.98385902137376,-6.333444083732801,-1.1212922116575674
19.132570117352383,-1.6010097802658823,-1.2978405400574449
-8.147761608627844,-13.294841749721234,-2.21529523960262
-32.11826129730523,12.300259736339662,-1.4781391227934093
-7.097852537594311,3.443027810428218,-2.3402943678328327
13.659948085108145,-11.155272002430081,-0.7579651847391593
14.652156205638983,26.011103857704544,-2.386430158295734
-34.97311778673147,-0.08455179113378766,-1.0733017167648988
13.136429968152177,-1.2617660505593522,-1.8748907631431262
13.54671200442547,-22.477906745121388,1.12793000302146
-10.116423643685577,-0.2728181445687243,-2.337863068393053
-1.8458502096188532,13.348709007196764,-2.4235276790657037
30.20592272506631,19.7552065012327,-1.995173846836956
-10.491873153296117,-8.652991485842781,-2.273914235371552
-0.05166930539963407,21.371950605288227,-2.5029534746416786
-4.6614447682227995,-22.284696996681436,-1.8199177314554065
-32.13679898648219,-9.403786621143308,-1.8510013493683775
10.126117352372615,6.983361154653332,-2.2121943966555198
22.03452890232359,-8.43851496684858,0.14477957044781334
9.669519083529764,-19.094945016384322,0.39403808697073295
1.9558593267507174,-9.129764477321844,-2.1569377429961647
23.821728767660716,-4.0741610068694305,-0.4449221147735613
-48.108422165443855,-7.86007622812037,2.6946713628310315
40.62900796842979,14.087239211580883,-0.2638598930199604
-17.31497589664709,-17.39890094106907,-2.26563171090557
-37.995115630118555,-16.952101135839374,-1.78810898777259
-48.537842170426984,-4.2980700568164965,0.8970708738084834
2.248628591667452,16.861990935831287,-2.4168016361460443
-32.30245229682893,-3.66135127192134,-1.3971808154816474
1.3343252521924205,8.422594659429318,-2.303676540390361
30.59125677765863,14.101399346224218,-1.862086498559383
9.583712856085366,-2.627242988265992,-2.040117433534859
-16.14539972188998,17.72738335769354,-2.213140272796424
-22.426402319704266,-16.71674574500642,-2.2359302335136806
38.44445468187772,16.033214552953158,-0.7668403860847494
-9.655219614996623,22.374390593128773,-2.249227645852875
9.420083718469044,9.465742514025584,-2.2328773677599263
18.791706071236863,-12.49060794517478,0.4154036678012901
-16.33986979278907,47.12582004489377,-0.9182500176689412
2.2661553709119104,-6.051721886643177,-2.1788592127805058
5.643549833663015,6.104707695713024,-2.245876059089941
6.981935609829776,14.854874910928816,-2.3319278996665416
-26.75832211205923,18.263286787741034,-1.39234809937009
-18.064453754877118,-8.59735399512103,-2.342971685933571
36.36870722268514,17.859482149779343,-1.243442456147701
-7.359683906225695,-18.533268180505292,-2.087645878770945
-39.1212414234775,-14.649518439409135,-1.2820172388411755
-2.937604900389936,-20.13905776419977,-0.6245929925998086
18.55036620846884,42.12354810834043,-2.54436497871012
-29.377189714838355,-11.413699687133342,-2.130449369021644
-20.79827759068388,-13.602440568152474,-2.293779776027378
-22.956675888113637,32.429153196067844,-1.2193555563803944
33.952647321603074,17.19333420080003,-1.6356423311110464
9.213550762980367,-7.154551986800021,-1.803589833702759
-8.011406956328377,-4.8282175034464165,-2.2821122431411838
-32.557557957841894,43.67769328116745,5.028199710666608
23.927284284860516,-6.876115895281561,0.15276002215125303
-28.334062397960768,-6.4346208685034325,-1.9640904834721409
-17.447742088156804,-13.341805944850204,-2.2994502275607864
8.693897142593405,44.2662117641692,-2.49376255606509
-0.8920946693746962,17.305225536305052,-2.4618296988403148
6.872051880951049,-45.568311287238096,2.547477730445736
36.566066608630216,22.037193191455135,-1.3102241536872095
-18.51688697653561,-0.2720227095351315,-2.3995344613784164
18.73675139387104,-26.467986232409654,2.192109468451632
29.617117076929905,24.426206660854604,-2.1221957121413224
-3.5349038407651716,28.100875991569662,-2.263991682110067
30.06172574697746,2.6619931482664123,-0.5555973932533561
-29.90850628514192,-1.1740075309957816,-1.654600928480504
31.43044258955196,7.13780392491779,-0.9891372502479936
20.45144787554971,0.8027867923845742,-1.3835382682888302
-18.099048729786016,23.076542248754087,-1.6212100370350653
-22.112049829934612,-3.6127228747095326,-2.3456190261623595
18.917880680080557,8.720419438565266,-1.9226964582103634
2.191734623595932,30.724926747767277,-2.4622874939337143
4.266497284889179,23.22723717769479,-2.4723573917875608
45.83841373984388,14.643577428287847,0.295268161545244
-2.131809356783545,-6.505844313869638,-2.215184339788965
-12.333480888982129,-3.940063968686832,-2.328537038371886
-35.564758463952295,9.749589090042747,-1.1317245427765483
-35.52519436027359,14.614495675335757,-1.1788916730376187
-4.9110106807182285,35.51515294498323,-1.5408903419062183
2.016792724269787,5.908784260060924,-2.2772667223478438
17.347372653680136,-19.047129868430325,1.1072330880983607
-12.392850103895208,-17.23323517969312,-2.222223531841294
-1.7322301358223586,-8.819895699124213,-2.192951546877196
-5.882027952181178,11.27024967346738,-2.447751204321674
4.108196196642042,1.4244291318944517,-2.2222107024945714
11.30670486659945,-15.563546968900875,-0.35415188969189076
10.086584637560504,-4.8928026097213655,-1.874448285037467
-12.797616547592728,-11.946146677189914,-2.268401335836709
18.27584476443085,-10.294854602994242,-0.1287084405138737
-8.027928437278367,-1.4129789646938733,-2.309714780034427
21.737608399278102,38.589486882082774,-2.448372099909177
13.846425900783997,-6.716627205049126,-1.420444684250257
-11.763537106446394,17.986574465247816,-2.249991482472911
-16.331660031779002,5.130432660226149,-2.4320427468302706
10.674321975817325,28.930741421171312,-2.4650161800760837
-9.054764058719869,27.188300305443978,-1.937114340955764
-12.908969302158736,-28.364373398458437,-2.1066018809667484
-12.352407761105649,5.439752770481189,-2.4273794940150237
11.405676946538053,1.7200638228594636,-2.0744363954343346
34.84990241108836,11.133178543686354,-1.1227665053751992
-25.47144733045097,6.982646747123888,-2.111222614932992
28.035184729843245,-6.950460632335324,0.8864255121270682
-22.22556696331848,6.3870839857415795,-2.4209832210489655
-17.90584185599514,13.55540279795218,-2.3511579346098634
15.444223310539535,-13.929966361468047,0.12761818231974176
3.2841777893901347,-13.681800120802631,-1.4730445586710945
-24.941065984901268,10.620060604423742,-2.166919915340718
38.76159457897856,18.44767378702893,-0.7902904226211561
-20.309929109946946,-2.0499432809027183,-2.3906541088246884
33.568574596413896,-0.3308031177539241,0.205986780191724
7.640002024177811,-15.08714314709084,-0.518994531324787
13.591936130104948,3.6175873214217344,-1.99824143732944
-26.09057595808176,-1.024141171437312,-2.08719840380202
-15.266981242151234,13.105148589476576,-2.356358412701043
7.89632338458758,-11.756056665402616,-1.4826091513550896
-11.999976459814754,25.21392278844812,-1.887591739747582
-34.035417382310314,-15.185421286310469,-2.0602331734504387
-39.32873070172697,-9.440464172483518,-0.7446030419326117
-6.641778446078554,-21.142713445725473,-2.045488652667649
4.03294633495963,18.164841341336235,-2.4109714664724216
-11.770219257402955,20.660713028508358,-2.194719523266436
-6.307180412435803,21.554358605946756,-2.3511644190655816
-6.298979758725886,-8.111754568152096,-2.24015335490725
15.808617712644093,2.1860046767770815,-1.8690208842011764
-11.249767477731414,3.3829010222182574,-2.4117277302710733
-21.592338129918613,-5.746949361072499,-2.339213441884578
8.091175039426268,-0.7771647242540246,-2.195830239859011
-25.59995556011493,12.808456740839919,-1.9350159770556716
16.570995918988196,12.671382391313243,-2.183903231965507
18.67998216069214,-15.640841977347726,1.047089756050322
-22.915232648584205,18.71351571772092,-1.63547367973901
-20.46296837250333,3.241786710426365,-2.426378673890235
-7.320532819362322,23.924192462008893,-2.30925684520939
-2.8152245830426934,-12.680086379505951,-2.1717664846790377
-40.17035787380344,9.437300139218992,-0.7596645814226191
-14.940434519653657,8.659223230210763,-2.4533377557180445
-34.65779033886572,5.490560415675093,-1.0768858627395352
-9.99873601104012,9.243417992244275,-2.4488874382197543
35.337475188891396,13.232632082865297,-1.1580218500452197
-29.817549691505825,1.3925893116279962,-1.6500963253279286
7.097412138029192,-18.9534949481219,0.37259288742954355
-24.27186436605053,-5.199734606066655,-2.2911150656135595
-28.83647510146694,46.54629576688134,1.680386785292913
-29.052278657531833,9.519735869789255,-1.6900171145820917
27.93532022049101,-1.9927405865317187,-0.17184669311190356
-27.40099312526161,6.083550784850886,-1.8973497580768373
-16.00425130058122,19.89788108853891,-2.041221322859096
-4.487276232319411,14.046405361621698,-2.4655254284346064
-42.34641220937428,4.592519747977998,-0.26136118650437623
14.153977586263183,-16.32841096913971,0.39781978959298175
14.076590015549948,16.39867219006008,-2.2625464592348274
-23.949324831219702,14.677375863948193,-1.8987599297285054
-8.811730615537241,13.84109669482769,-2.3310960441370963
29.127934617177008,7.752600215425466,-1.295439133354234
5.541117687056415,3.0672760213459442,-2.22239164178658
-37.2444761849151,39.899101995842244,2.345777936606234
-7.5040657955422185,39.76971283899718,-1.2420393052065204
33.54520348695295,14.96670486988497,-1.5786892303634197
31.88432894506531,4.408942859948126,-0.5925710293688186
14.01657122293774,-24.603819975454087,1.5653106838586113
-42.45072762374607,-6.935707721079461,-0.26393135170274445
27.328900240970984,0.4014757719040224,-0.5031752098870201
-19.217982891301173,8.463214435422612,-2.4592654025962655
1.2390029340738313,-0.7181051511532698,-2.231068219029286
-16.90133797899368,-10.470758280178895,-2.328447021229914
24.496682669765928,2.4725251265745865,-1.05816501965028
16.905982075950575,17.41010323403124,-2.239904610960898
16.86823136173079,-3.52844505097023,-1.3775728410432326
-13.147387361395555,14.796346109141755,-2.318097026591237
6.726773238174961,16.93946289012261,-2.361612430324591
-6.13117852948114,8.225301652216043,-2.3699486159210195
-36.73264590785149,-8.817300265385075,-1.15931930887418
-19.48965866195587,-20.569980809142628,-2.265143104915402
-27.687690397815622,3.002763594213545,-1.8826024915921156
40.400830013763326,19.8395257232848,-0.27617685106014583
-19.116558660023205,-6.366559377988359,-2.3597036756251
-1.2404530284349018,31.60124293742869,-2.1378207154562903
-4.978769720099819,16.271089543187912,-2.417442258223762
2.7356285236418056,13.928841065113707,-2.3734283405578007
12.909074051134079,-9.283237768628704,-1.2710240530846277
27.647715240088345,10.741759911308245,-1.6396518406307143
40.127224486506286,22.212355055756007,-0.28142661957381604
32.10307009102527,-3.481616875469732,0.594478155085656
22.80405667015544,6.672863813001535,-1.606145210932582
31.832291114227626,11.037165857636758,-1.447987565573863
-33.924364234478446,-19.88173889694134,-2.173649257975626
16.874486278521047,6.083846635099609,-1.8779110330943414
0.8781049438348013,12.309752187019583,-2.3761591236589377
-6.995261905880593,-15.370415412269088,-2.188135681034429
0.8487112230702886,-11.13857956614626,-2.1508539502683166
-2.014284845642095,8.869655830548401,-2.3377074144463426
-19.733595959397135,21.6671638128458,-1.620058357224778
16.57953423461697,-21.139139848833747,1.1546138984389414
-4.311091915228244,-2.895679807626834,-2.2640122221514885
23.68504905210409,-1.6895513696493023,-0.7287233003521828
-35.53710906873952,-12.812379462136018,-1.6235426108733626
14.144666957874923,-3.140389816517378,-1.6968692354694748
21.071437717992847,8.787818286599974,-1.8249919688933298
-18.540041218924106,1.7807878276459927,-2.4133317171534987
-18.254356278651024,4.288531349186987,-2.4296551380815328
-21.235258455696272,-25.361438323115063,-2.2359855344018946
-17.79703858903179,-4.271999176639677,-2.3715077745441064
10.342294667167183,-9.100603882420089,-1.613381976810658
-14.217055929017945,23.59020087370595,-1.8618538142568162
20.138472698137694,-7.430315682259657,-0.39517660382992376
-13.639787827033079,29.5898471892632,-1.400316398496333
17.617839386571788,-6.013340262286947,-1.0290731339827657
-5.965404059861164,-1.0499583445889382,-2.293885424794005
-17.44174009091086,-27.691406469025935,-2.212245192341911
-7.399832345698642,30.827511046562332,-1.7525375302295103
6.517058904570905,31.155723218674396,-2.5443851953843546
2.8174266237457397,-3.592258658800896,-2.1936180665100355
-22.949259734655673,10.444485596781716,-2.327260996529424
-19.627562844320554,11.699902455346699,-2.392196623721515
-24.11707781819186,-12.586884049738153,-2.1746036519641585
-4.084723654048767,20.278942727094865,-2.422640006747373
-25.81318634287893,-8.596797494241958,-2.1748422721069107
23.732057482032356,34.7708518114265,-2.3271445404523976
-10.035248075586226,-13.954803674966051,-2.2271467086102583
-27.403826411718967,-28.220983832355863,-2.174526050445814
31.85159999913994,-1.4875869471490648,0.19565445822344438
4.77574071269949,-12.292056457732807,-1.708696323714744
43.794738541587144,10.512484200945256,0.27635794374835887
19.26077380310265,10.6617677110209,-2.031956219319332
-40.451877043377145,-21.11213845133359,-1.9610718236360563
-3.719429333234666,6.17160722618194,-2.3315189349998895
-11.771736381050937,-7.094447198946842,-2.2980754845190745
10.9729011682177,19.479540615120744,-2.340619972009781
4.866356170643605,-0.40721574653430764,-2.200596256498997
-10.730365236545909,28.655222403196895,-1.6914650515907586
-4.368699296752181,18.199888799916014,-2.4251887508654955
-22.14408177378382,13.947695985836996,-2.0919864783518984
-4.8684227725253875,0.8326321913170661,-2.299047011176331
15.788109721971523,-17.76827056463937,0.7294594341005369
10.700594940147134,16.535313402741277,-2.3066306134375543
38.217765261249866,25.670158125998697,-1.4128905113161971
-26.052699705391085,-4.256556262196293,-2.1101773386810634
-23.330161492277067,21.567769592233216,-1.3654971302591026
-0.8567727637442643,-5.009573347499524,-2.215622173014535
20.703251128644784,-16.4877974040206,1.4630515352478188
-20.59624976840226,18.12347420352082,-1.8545300998556924
41.13791739032381,6.7212174500772495,0.2557691410921891
-10.46176773387258,-17.550488514152686,-2.139043940463952
-22.6220908606139,0.7784599536595557,-2.3697237186713394
-24.050299063095498,5.650183436489245,-2.2802704557337115
34.692618210665,21.49285576336568,-1.7539618311308212
11.92311109919913,-5.6039781191432425,-1.7070389112236048
-28.453512449828672,26.959152297040333,-1.2029237737220941
11.80034933678155,-23.30281576710198,1.1225949936016455
-13.62377818451424,-13.68981213085961,-2.261894832186727
7.480352545314099,10.137217656718168,-2.265739989215655
5.706334860081692,-15.238651333679307,-0.6993373095353176
2.3144974146526383,39.22214486062851,-2.171952800383124
-18.506788662874587,15.495826200160913,-2.227887779396166
5.525617182462417,8.095817919012523,-2.264324910047559
-28.285812623507663,46.934330496837624,-0.33624601053917663
25.286653341172308,0.6819265473522567,-0.7763104372646853
-20.04563008494595,-9.84375305097083,-2.33797210800213
40.1292287497708,28.407577974011406,-1.5088830026935773
28.252258955629213,3.906702744612891,-0.8752906581774079
-7.982373403223469,20.54545890194813,-2.307554764938934
-29.288469479831218,-38.68824191555746,-2.0854663958408017
-24.033707793362435,-30.178432922587614,-2.132641020698246
-13.796976359818828,21.671711520071387,-2.0536393077102004
25.733940734521827,6.849265390912755,-1.4720843548911962
41.82042146261641,25.203823998456535,-0.2996090436790017
20.49655320945257,4.919990367874799,-1.6849663297350723
11.286366023700277,35.9277872063853,-2.545655815003774
-36.75244137827267,40.353576180616905,5.037862768276107
-9.01167124477711,-9.991284938812866,-2.249702420689021
-21.569142838691697,12.149982246933394,-2.284951662709173
-37.92480268769787,-5.244215373419209,-0.704833380874293
-34.65291357440959,42.017142188303836,5.026953564993795
30.348541029957214,-6.348215002804662,0.9515317958401605
-38.285936437295504,-1.502849299128662,-0.7053811096121781
7.221693567422309,49.50907587686911,-2.15031313919044
-36.17621398251608,40.71347167996299,1.002670280186945
7.884796814878604,37.69438803561308,-2.6032073922385477
11.582464366771912,-19.218652749828813,0.41309916214440157
0.42972440389590744,-15.934695717227441,0.6850886520893877
12.658325873962001,11.528702624708698,-2.2184661655587594
-2.459486376078027,-2.2400029294277557,-2.2524524500254572
-33.70514068197103,18.44507891959234,-1.1791451109833606
15.543570821347801,9.629591046783206,-2.141391481741046
-20.382793026830246,15.827747206058637,-2.0628847953114233
16.51801842984039,0.24265828997769512,-1.7294690490979505
-2.123063057913085,21.03436744024166,-2.4759267585485594
-37.78499273499114,5.9859784305020725,-0.7042910468654741
-49.84663547800968,-10.040451011271305,0.3120020460732795
11.05240992867821,13.53399054798389,-2.2640869574016773
-7.516037463626393,5.266253119435786,-2.35875092065795
36.88979209846948,19.832819147874627,-1.2853619667965175
-7.606899747826751,11.948598924697286,-2.3683441545800674
-37.58162954005323,-30.99480099337797,-2.093626363271159
13.41899442015002,-20.51778646190589,0.752386741440413
0.02273393619568403,-9.403427386531092,-2.172309196644742
-14.268923127339514,1.9028303738593373,-2.4069192296536825
-13.962866580068232,-16.266188872954732,-2.2442675610075624
17.25744284577656,-13.743600924540113,0.40614726097891024
-29.528427667625923,5.4239320633430514,-1.6596260397316343
1.7632478620266006,21.07136619046325,-2.4763685167601257
16.369114612195624,-7.693642989089803,-0.9998413045749555
-7.494554038191928,28.158408010643615,-1.9697135596044562
-25.61106551365137,-39.5760233160028,-2.0259819002642123
-26.775626888500994,11.401228016856319,-1.9672273161031286
-27.851430386519503,-4.550437450378009,-1.9076591262336426
3.3437491805209087,9.416864729178604,-2.3084774040999503
18.526751728133227,6.937611926107358,-1.8259725303048013
-25.944523276346512,2.491995066194202,-2.0834620885794317
-2.0766005052325847,-0.107049991186323,-2.266117294104641
-22.851533178214506,-9.530205002048058,-2.2852636799782973
8.170496672812869,6.090326640123994,-2.2227916902836036
-5.143076963760258,27.25704964888674,-2.21728370526439
6.298306037973194,-31.268452468057557,1.7632213272856243
-35.402714635382,-4.453426717931109,-1.0950450775404426
1.9395891479125786,3.1648607334888754,-2.255912265748307
17.624286853663612,-23.04815500851356,1.6038995630044721
-49.44222670383263,-5.604074822717771,3.36358802352216
-16.706016703870905,24.224307162084855,-1.6266724125699454
-38.96084168311292,-27.580473946997216,-2.051549558391125
26.46512857521268,-3.1992256293402828,-0.16357223902531384
-24.31499013154632,3.242522322777632,-2.264131933654807
0.2819320670042799,2.3322420070391776,-2.2642868429808045
17.051169029259427,8.373271203904116,-1.9887206054538842
22.040425319360654,-4.048497635059137,-0.6877203585626601
11.483270701159563,-1.963950399162601,-1.9479091954937182
-2.543022448206088,2.933699406049398,-2.2947989989201036
-1.5998443137284009,11.569658301357274,-2.397839726456567
11.05862751852186,-13.408740475904967,-0.7469844416590974
0.2386518358067043,24.217431828463937,-2.5354623302803136
-0.7923923844768954,-3.1961718873683718,-2.229613465697803
-16.8923314228134,-47.5731854816651,-1.5492929209347688
-16.696846927305277,11.69896007586399,-2.3876541987611284
42.62431697176949,27.136144418878374,-0.31004734180160654
25.666495844507633,-7.036116612991338,0.48994967022229835
9.200357966449456,4.104880223329115,-2.197471318458813
3.8659615659678046,5.816211168362714,-2.2597145170971444
6.274443935230884,-8.636698670553573,-1.9198811057570095
16.801832840740943,31.61764711100717,-2.4203208315716798
-22.044926997182923,-40.283230502992794,-1.9735781602901925
-3.753799241423177,-5.800635128709137,-2.235596084373312
1.1528320962961798,-15.129895401346337,-1.025712804489329
-47.16051019513398,-6.521322592505962,2.046145621043052
9.33986164482944,-20.93363650446584,0.7034803412966935
-21.886008796817016,8.691079476359082,-2.465309173882251
-7.444726237912511,18.486331450595998,-2.3339668815924655
-5.962891875304706,-17.47003607919222,-2.161874750704793
13.833315052207277,-18.55812689313007,0.4261252438182246
-10.554216938815477,26.207646365670225,-1.9098418978399936
4.383938770504551,36.26549567596078,-2.4693157969606783
16.698559404040996,-9.406363610542401,-0.5881788661329098
-15.71351243528365,-33.43231371381184,-2.0420779590407645
-4.184138883177479,4.48236627723828,-2.322164475012184
22.618481569190813,4.55596960490925,-1.5596690903508716
0.2683356335916737,27.22962466091149,-2.5134061104175283
4.642765745566006,-2.6908685248442112,-2.1842721357495987
-8.60794243903587,0.6140397220939423,-2.3312804154271736
20.532788466964263,-12.583546967959641,0.7390573355606784
-5.188954833199408,-9.481903189885886,-2.2190502186036887
43.35118472386004,18.079560538804994,0.2882088958264927
0.06241058445100594,0.5754715233514,-2.252160921756048
-5.030044432824958,9.637808097384188,-2.3712938261008008
-27.184243975118,7.812086397819565,-1.9119696280170082
-3.1234477305679427,1.2849363437000192,-2.2868217103755955
-13.203099838033662,8.775932483868635,-2.451178876003352
-18.447767956341238,-40.53455906772324,-1.9140226419394857
37.53803440179138,6.133059422261008,-0.23338738143058094
-16.649756988128146,9.111550209381845,-2.4592629293595083
11.882164728637305,7.564605394117103,-2.1778401077056913
-8.376953898378687,-3.1368723520806494,-2.2990302623358283
25.39182738222297,17.511183686324888,-2.0850250168519175
1.5434034676096993,-2.4243134029371136,-2.2145865196906422
39.82671632615344,25.355093119075384,-0.8691804340411459
19.254576929200937,-19.637844145735087,1.5203209503599007
7.313293633235731,2.636699934307935,-2.202822331059857
28.599647302919283,28.738268730097566,-2.2412607625600214
-1.3043812158881045,48.36801816700737,-1.4849176293217992
-24.51146616724649,-0.3600861986111542,-2.26264318782151
6.20947072013439,-3.701437733311139,-2.2414165030865307
2.8558201650353916,-13.330695689487403,0.250984485967769
3.62412298295348,27.1765328944714,-2.530589387020241
6.182374478988538,12.356563723516684,-2.3102175522154766
4.5143509643123485,46.999564830627854,-2.0292387039464983
29.56333177417346,-0.6542272605037526,-0.18144502101622761
-40.733954468320036,-13.012902662875346,-0.787242396122647
39.3649202683151,9.96160130227804,-0.24915715399206068
5.059550539334825,-6.134775766073883,-2.148177331412288
-0.7580808154038782,-12.846657494450668,-2.1517290733398204
36.31495025912133,-1.2496517085909173,0.668948462539904
3.5774413460947767,-9.922584924907756,-2.030885015215429
28.827959810016313,1.4860984747936845,-0.5314230978880427
8.161217164699554,0.9250406926328723,-2.218809001687121
-11.512080629017179,15.84624430312637,-2.2938470298553386
-0.8134595031952059,5.394018628397083,-2.2988546100563596
24.222018468059797,10.452526376268914,-1.7833040353474163
8.24447996844456,15.98477900820343,-2.3304456009047962
-10.451388276829851,-20.26363488946314,-2.104444380374801
17.09985524653759,3.4443700614143555,-1.8261508687399173
19.557292105141194,-9.19211740250125,-0.13259762841872835
25.87757691823367,-10.276157692336891,1.1966456692637817
-1.400132537784576,-16.732023928236842,-1.9663963362905172
12.060851655253087,0.029158584495362988,-2.016609719125265
-8.573949030443325,-11.619236790337943,-2.232637929760489
7.632669761631098,-2.7102155541812563,-2.188036537569433
-38.199357078790364,-13.244809750601272,-1.240777928134591
25.47064401305173,3.841169052669003,-1.107052732965648
15.26581093996515,-10.696277775672439,-0.5720522535409451
-9.701658136943498,6.797649383020413,-2.431992838409553
14.117677997490405,8.746218433880674,-2.1518567587834787
