1.7606807935741247,29.403722469871052,-3.816732071473415
22.574311850188323,38.87154978036167,-4.148964990810535
9.227395851556734,-5.511251515173646,-4.221889535262186
10.118243635337338,-44.73389200193537,-3.1003022940187437
40.46857982425327,2.051022004932489,-5.250337019202991
28.632400212947786,34.99924348293173,-4.173700127663372
-8.656664021159136,6.906320319616269,-1.7121924847400671
20.15277108273214,-14.518870521441833,-6.709830824505827
-18.731643492018264,-31.36207610471269,-0.6725151521041088
4.641560589440896,-33.782270005773526,-2.3050622492842416
-5.8194101031565,-23.38623196023889,-1.629067691927356
45.685949405343145,-2.73565273024901,-5.360029768868895
3.901612259686306,-14.014013978519031,-2.800898958269931
-12.892879832230605,10.029562800027323,3.3534718168409228
-10.581437195739243,-17.71632258383621,-1.3949332112507469
10.050129457522072,-37.892240799447336,-3.1337058835529747
38.92570030842836,9.814572337719296,4.202696153086604
-13.755636586427606,-33.355288340847025,10.223531243769884
22.501249854801276,24.297648993176363,-5.537107650392297
-13.32014424848118,-40.53162252528598,2.884011293958281
-14.438052787821603,-20.040592846644934,4.1298756622154285
11.408752051199558,-21.905974833363622,-4.129701776514986
-9.451230374216369,-0.24668412656881722,-1.461778047314484
-8.038338687212487,33.61582316584082,0.21208190096918125
-5.358298623367942,16.135727539495125,-2.6287483959230658
-16.212728948641228,17.832323540875304,-1.926529315181535
-13.413855749723085,-31.426680750231178,4.001735670925425
37.98822335574923,15.260192513263593,0.7536756017925312
42.16285812739733,-21.792638234341972,-5.558426432294652
-10.954409211816868,-29.61083321960574,-1.3569044352625559
12.989429182002759,15.10566932957457,-4.602335885160149
1.7894320852450667,-1.3920258087323052,-2.6610544097984996
5.020044454060123,17.411737695462392,-3.2589461486967126
-1.6296675522305677,-34.25679341125714,-1.8958404826168882
40.33257336912306,-34.6821510570501,-4.252122948365763
-7.262115744581732,-12.504908036605423,-1.8737025569797514
32.628001704507085,-21.154885583886337,-6.501822652955159
12.318462361382883,44.78332352114217,-4.287007552339791
34.293942776217825,0.05319423078894052,-6.167565192947316
4.607546624377933,23.35295521671457,-3.3817297734947895
23.334467836029756,-39.894986254632606,-5.4127613559069365
5.382878185663545,-26.843876997370057,-2.52700304568389
-13.911042415881877,-9.326305211295974,4.304549378291343
9.934102126776803,6.312310041265832,-3.9685299977672197
23.16843986673213,-19.922639794398428,-7.058869082555199
34.906702461413545,23.402312446647883,-4.399682164679429
40.5668986934156,3.5568119223042305,0.24987343023648304
-13.516346300010543,-44.80750560273483,6.649156831724799
-0.23746332525808792,-22.14909038816248,-2.0444701708304858
-20.060327156423774,40.94008713336859,-4.77291592000576
32.92152604414371,-39.00291213909031,-4.710947808268801
44.8596357995945,23.363144796697615,-3.4190230398358596
-1.7084068893982245,-11.641527311789298,-2.415591443103362
27.69592495091018,26.45073477600697,-4.962307095776608
23.53442022434486,46.93600375066604,-3.5492773599517227
-13.586757215821196,-0.5215344710373957,6.533179825849923
26.143651905440677,15.725073762102268,-5.8741479550608995
14.990003488425137,-32.593230369441194,-4.201455840988082
-13.936456701771363,32.37253502191462,2.817361171194071
-13.178822581437396,-50.3178545694514,0.9575896388586153
17.938815457042494,4.289595217696146,-5.471735014543074
22.30684125304318,-4.4011479558882645,-7.049789656245399
36.475712996302384,5.92704961217044,-5.250097910990919
7.187199055796674,-0.6966226441004574,-3.6903912117984223
3.2789282959221495,9.208998708791828,-2.8999340215552283
17.58036046801428,-1.9220252841368672,-5.962975667190778
-5.741196633600965,-29.098763139035484,-1.6395752322639723
10.553179853539636,36.60310205306195,-4.46133154725763
32.77663323315593,40.06500882029525,-3.499134949935782
17.260265892466833,30.579132544308525,-4.988684144964341
24.803884410169424,5.291234078869193,-6.51848426089898
38.13167204123211,13.184339511144628,-4.725140219039352
31.762883653200195,-27.313038490897274,-5.9515284243854145
-13.509461295711784,-36.51738743541909,6.020026532993331
18.581091488497865,21.079446887295674,-5.0535828363833275
-0.5127975748232587,5.8486666493761765,-2.4742044987919596
39.71542292784359,32.696831187768254,-3.4774455208716133
48.449876585687655,-14.615080694984217,-5.926678686135001
21.188513190093033,-24.486477925968234,-6.234716237146209
20.01259162923408,10.112429637995577,-5.762966199742067
42.643032651587326,-16.37329140689214,-5.918650503059114
-14.282116192664107,-10.356867909993786,10.427662958674137
15.275383434350049,-15.99448471949034,-5.396012110903628
-14.094654642884736,-15.219908822966197,2.1716815561573064
7.112256266372441,-10.3321642786156,-3.7211171906673277
15.233800371950432,-26.794422521494415,-4.765508373692394
-1.8252150650419294,-4.753638329675692,-2.2946150378648382
38.110377729729734,-9.981544541380218,-7.085102870608719
7.277360974911926,45.68036680935158,-4.269449610768065
-6.480794692990544,11.398938350195445,-2.3581956969945255
-13.235044086419808,7.257764191812946,7.25279704894692
42.499893737516196,-6.236905975931216,-6.102659021440624
33.291037216571745,18.927409789316872,-4.962026901815233
32.821996923289234,-14.972031939425017,-6.946035427386441
-1.3376366653581298,34.84744657251698,0.21398140875601046
0.8970183716298501,14.98038676064501,-2.8895104845005077
40.09988606627853,24.11957092011694,-3.7406188669412197
37.535967753827116,-29.94634147531639,-5.0270409899088815
-25.754138688856692,40.53100089344955,-4.432340598067746
1.2376902300198869,35.082877927963374,4.111238332585644
-12.696770721297485,9.147266615900065,-1.250900649229211
-11.556716735702597,-7.544007668984429,-1.4448441366114737
19.834791727632293,-9.9454637437861,-6.879773808729386
13.301605330681385,-3.658846903906375,-5.224551954190863
27.413694075241107,-37.80347180781761,-5.468858097350958
7.656116038811662,-16.646931001773815,-3.5279569570254488
27.08471018526972,1.3727028926751412,-6.970192657046172
25.164545812050594,-13.799601898216443,-7.753060071873352
12.363956115329163,-9.376848867274822,-5.020895473356649
1.2556479076210363,35.59189625570821,-4.170888389382872
10.419207821600038,26.1716727602886,-4.355350833657721
30.35225230537742,-31.781109638714007,-5.694253799119358
-9.364174161478271,33.634728123084784,-4.088896483420416
-6.70165883786021,33.42050466625633,7.4348294653614
23.001803053912045,18.936876810665506,-5.736596218042997
-14.64129104054147,-17.897001516507558,10.08039161590278
-14.741702490989024,-24.007570488892217,6.144979851719518
24.41865621865731,-44.203319595653475,-5.286831529468682
34.24651694336146,33.51998333787818,-3.830634870562549
19.98079045267372,34.4056685265293,-4.659564589189243
18.84630322419419,41.31525426492201,-4.191392202931146
-5.421478648870305,-2.255508540235857,-1.8999473578678507
37.718189719897076,28.064506907382622,-3.758107753144914
21.81198116048642,-33.41392251661872,-5.6690521193346495
30.45628227031193,9.290425171169385,-5.726546008217994
29.12453343006804,30.685622895560584,-4.429103312564765
27.594425409666982,39.31045458059403,-3.8392583445926456
37.132471677636715,18.194624929679335,3.816636634607659
15.87521443416553,-11.735736282096507,-5.856657517229731
32.26558783049252,-5.955613401271031,-7.156686390760119
35.07764211763806,10.23133980142102,-5.191164701084637
46.112745451541805,-8.511535144605794,-6.075865274455041
12.201750659443448,49.03469014633706,-4.039199129911302
-11.32551632312747,3.568586000385089,-1.2431422320601309
13.250222637957254,-47.5928392950436,-3.3395292520603226
28.41889843397124,-21.552948999826416,-6.867449832221901
14.853875899551536,19.09447508671689,-4.657896022231405
37.251117608483874,-21.026240485479534,-6.077152761818073
-13.089024506230759,-39.82835250235784,-1.2866153398348685
1.144871679305487,-18.174446755775275,-2.359572529440312
4.991888246418094,-4.292545894300064,-3.163428865966024
-4.469290383576602,7.228071620100612,-2.1841929266170017
-13.288129317992043,-46.08911818721718,2.6515625225701545
-13.241638052446442,-0.1830504402214503,0.2437998469280519
5.334358254467991,36.34969965037551,-4.302639760252726
-5.111020296953471,20.27088267360381,-2.7087466406820044
23.594569105332507,-27.953045206380388,-6.5786422137382825
42.43761595190211,-26.05855969804373,-5.213553221786233
13.35658201051019,29.28057430202502,-4.975912584727635
28.18137659234123,-7.012629821732658,-7.464003286088386
13.989710310317399,39.29065004083989,-4.366325506755398
-14.198112429194634,-19.70754606357894,-0.14903961268224178
44.07168254340929,3.8641032702814964,-4.631594508487642
11.695949889955353,11.170107842255335,-4.369020701010173
11.197164586487178,-33.71861288105633,-3.279328237983655
11.659261698779218,-17.860902415858366,-4.378936491755331
-6.556782988835308,-19.155702899307983,-1.618459512793017
28.683660189854486,-11.82906894727806,-7.569860192050121
-14.789333812259356,-31.395322747919312,0.21294578887565224
-9.232847943280127,33.16302377752719,4.031552471817098
9.19097885698977,17.259454508195265,-4.014436194607546
1.4467618916635914,-37.69032281228803,-2.085037109255978
-9.12418012644765,-33.17062620971551,-1.4785526911490727
-1.9538173350498085,31.016182658928784,-4.026803872137425
6.166339459166708,-44.879936509008864,-2.504248872382601
5.263918065470939,35.86970194658164,3.3462201221732264
19.856748993103956,27.561959197467665,-5.252173832089895
-0.8999941377704381,34.48155359578696,7.523711146563965
-17.62357179085804,-32.13782419044489,10.38574180603035
7.8866612286952265,-23.749519339506133,-3.242516882030366
-7.074946039688959,3.2272965695384115,-1.696166516660655
-13.849051612288521,-1.9028091408228398,10.235297032151069
40.38274253973833,6.054245729590923,-4.782222972239377
37.79462251657333,-37.67755564882726,-4.26597345465354
22.776625267987196,42.771519092775726,-3.873568152938115
51.54736817583411,-6.27660420152539,-5.436387068144585
39.83072215359355,5.9714859452059095,3.2195159845188344
-13.701529237069039,-4.179532845729556,5.22486994489614
-9.69662911396434,-23.512823852126033,-1.4059673510018114
24.80509322249331,35.336828943306195,-4.5199027977474335
-13.66703487775013,-47.40333049713493,9.498874805346684
-9.839024163110631,-4.093348782643867,-1.5139822159993919
1.1683343472227325,2.403233242945435,-2.5755677755901982
-13.380353956413337,3.504467994059946,6.43833802554189
14.254018135510538,-38.165730565526374,-3.7603460057172082
6.603620898588132,26.537708698016836,-3.88520517701137
40.49916555254809,-1.9266302949333818,-5.760250814996933
37.315552088462105,18.855673562353793,-0.7696961323169261
31.187773654340916,25.040455035851494,-4.684107326309367
38.84285449331052,11.329565477788535,0.7448886023704254
13.330663652090792,4.793125457654533,-4.583658579947582
16.45260650474259,13.209687808133188,-5.147743339745004
-17.34811436888619,-31.63550818411315,3.3301653292423046
8.237362299450936,2.9617963495185378,-3.816133946930331
20.993975210138537,-45.64785264544804,-4.637515011861791
-9.033780691113135,16.83813891499033,-2.4759232313627364
2.3248134614100806,-30.8641074096911,-2.0922571646781627
4.1879855359788465,13.29128639288275,-3.039619652405844
27.17287294701962,-29.887347371397425,-6.245317519563008
34.91806860275841,15.542964452513756,-4.952400424466896
5.243326235246561,30.498806549521092,-4.009775194344563
6.511450936195341,7.572297698361991,-3.3673402019176586
38.08079798317329,13.692194704223878,4.2365760219225175
-2.9265171657471067,-8.21923822919185,-2.242404739909205
3.0122822811811027,-24.114992159777938,-2.243102433601121
32.14305232568614,36.46490652684698,-3.8856637423491276
35.794720822534906,-12.744960300362726,-6.833350413939935
-12.955479876105189,11.997641819706933,6.440446711362775
-12.696307408244172,17.06360753626191,-2.2266476124553214
30.405244892997782,16.796367989502855,-5.370643274751428
50.28052621149935,0.6950705359206493,-4.641317002320631
-14.538291608504107,-23.676306097791564,2.5644173947796305
-12.964182884285796,6.7007731484290725,1.5278038918169103
38.305669184305735,11.684812677720057,7.2024278936149475
-13.319278176539393,-34.689079920648204,2.5118171680618087
39.40182614707242,-13.48680467473233,-6.439016867845981
-15.509166470820867,-31.901950431956152,7.282381089447753
21.331793681125014,6.794307803351835,-6.047863943270857
7.6069009994247425,-40.507323347176666,-2.7860709943261583
1.802609782943334,-11.093458194099743,-2.742036133113136
0.38353491338877665,-14.694406459838287,-2.457777366378983
25.593331022193215,-1.8479675884401732,-7.270863326967079
12.789505953780308,23.322564727682142,-4.447438720001163
-11.234965372838214,-14.082364561888898,-1.440051891739549
49.19772436345339,-2.94593612978915,-5.159768374957594
24.410712324413026,27.69290029286201,-5.244659040996624
22.397868171614228,12.734167053233556,-5.951966946514793
-4.709880254486692,34.27951512986645,-0.6370095368290359
-13.970924156142653,-16.247069642110144,-1.184522720685894
39.27884791971242,7.3762046663973955,6.682318865161683
31.011847222356053,1.1904052659578261,-6.371388140709957
-3.1550766003130937,-25.911446686374305,-1.7644946016296044
17.8132898419652,-24.564518685331272,-5.4570971921234905
-1.6724296859609986,-1.2765657585805428,-2.292927350707773
27.802359727225777,12.375572482326051,-5.859480129572362
-14.460283896132085,-13.810159249069779,10.530591025137626
-14.17994235714172,20.599580274968673,-2.3082537049970253
46.52266970449989,0.6431224849944112,-4.870954933650949
29.836826994961232,-35.34839606867864,-5.417368667373814
14.764269000190103,-22.61748425129605,-4.857565276060031
-11.417197424703712,33.020753710172414,-0.21438473056387256
-12.643888964597261,12.299081047103343,0.758088297144485
-13.674390832285281,-7.774488887750984,1.2573997180297671
40.9871946521149,-29.52883103510708,-4.662640375717017
13.341697951499818,-43.73734369413956,-3.655259388440138
25.92360498780885,23.569131643198,-5.417046296839814
18.344673860817927,37.734515088175456,-4.392545025435102
18.286576369511874,-33.10286087545831,-4.9001602467133285
11.263956878200343,-25.305058131809666,-3.9351851156319055
15.898037704589347,1.1975065915571863,-5.37560377901682
45.40985418792069,-22.76918581440983,-5.318132304465765
34.186429795093105,3.4206194877810754,-5.744596547825026
18.19973236297826,-43.74599282639944,-4.373231843305259
5.987367448969754,-36.846915575597734,-2.5234406439440584
34.496019976468105,-18.369768876731865,-6.534650851623466
-14.641982420567754,-20.323655306610362,7.76660282872931
-6.502887541722588,-15.768495164831194,-1.7856834452142607
-7.564780994963706,-26.238011159721417,-1.5095044078580462
35.8505188629651,-7.531531215259571,-7.053386172613095
-8.378567162777761,-9.273190694105903,-1.775556393761417
12.563692303942856,33.96088189157521,-4.691855392668556
37.601368567421446,0.058324465361344,-5.813656660206193
22.815230902989278,-16.437014147455475,-7.227235372154051
-2.062767678512058,16.51360056975055,-2.7825722079437964
27.188507767760704,7.569495463032324,-6.155929366573225
-13.500774266713563,-41.08125829342455,6.143535372547233
10.712216429919586,-1.706568297213148,-4.571276987245068
2.3687147676570035,19.45335539913079,-3.029951036195971
38.111328522535295,15.855531770880384,-2.7903017808581425
44.83958319131358,-19.138887290906915,-5.709675830935078
30.33739662633774,-24.203293353260957,-6.488999481536535
-13.46809161624949,-1.514734501823065,3.3066072776064876
-14.28612098682019,32.0945051511339,6.3180036385040586
31.45720254392611,21.65390327548712,-4.948316860322365
6.195290997247476,-30.89529871509156,-2.518829312808608
6.898316783776172,20.153497079335065,-3.5616483208603986
-12.069021182829744,-26.457956924794246,-1.2498255088226475
-14.1419037378723,-11.071788394034343,7.055015944899574
4.337198601010072,0.7047646001773528,-2.9751941090113747
4.346153554905051,-17.237334949630377,-2.7485199511093743
-13.918951064192225,-11.748689644835677,2.133168623305036
8.87179392334895,-19.93094108858572,-3.6477393376031655
-2.9717155067244514,-20.250039641660806,-1.8890898570789065
-5.125733374479374,31.544325034696815,-4.140879214311882
34.36627663909976,-30.293153979054054,-5.365178777384084
-14.360965821163228,-17.12125410497172,5.452056107123947
35.14571581998069,-2.97165571095692,-6.791150074395531
6.273566832094737,-7.250039413950014,-3.4969794126257945
47.12742166352286,-11.727147589688917,-6.292626097269146
47.68539237560599,-5.806355294709906,-5.625855724943039
-13.391740977219943,-48.68518903578901,4.6605244245658595
14.98160657166803,47.54668368810237,-3.9849308634637697
39.5801174724518,7.936817433239399,0.7431695421528639
20.236552769129283,-40.04832478936326,-4.69755154250312
15.63588509527077,43.91399648239964,-4.3025090510617625
20.083522601608916,-6.60016553505035,-6.840212359003521
45.31532400174503,-14.278521722256107,-6.156190745027413
-11.488459716984048,-20.950015296840437,-1.3208077591935103
-13.68082662425323,-36.980604580675084,9.108811278471768
-3.8499505704009174,13.199364980563276,-2.647323732983881
-3.8447364495198197,-31.575361284415973,-1.7583625472954856
1.317278094634686,-4.516222749886772,-2.6270185233597387
18.225424636004174,-16.877963524773513,-6.060393372916789
22.532233928360828,-36.44081870212217,-5.551435562756586
26.056566102572436,31.064838876484394,-4.748474807930526
22.40574442652822,-11.580815541088045,-7.482223054742008
8.309905075731658,-34.75149659905512,-2.8562337552558614
-9.257894018254165,9.935000913285446,-1.9293011848371298
2.548221944356731,6.179043563447801,-2.816717578586811
25.442801100547946,-22.988227554258284,-7.03967262474584
32.73303269404188,6.9827021941951894,-5.5961873848644155
14.916061843865865,-19.541542969983624,-5.047017984344071
6.5615043219767255,33.256422360368255,-4.392181642803608
7.094005273509674,-13.62121819212578,-3.5478368583740516
-6.337542280374276,33.74789213070317,3.169366189440764
11.02573423065856,40.083657247484815,-4.352244976045397
9.279185216203375,9.308016310200587,-3.8990278064880326
1.4152979802680248,11.623305170279849,-2.8567522693965546
-13.161811881369157,5.809819684369296,4.460846935247338
-13.671839901320581,-43.389915768565736,9.339644265459057
11.859317360399336,18.792335695372618,-4.27855893461315
40.173271173301956,6.022841445335808,-1.7458583103376246
-6.408193173216496,34.12411348041483,-3.204698269468278
8.052983884706505,23.526867826954653,-3.844743089314903
7.271292049879846,14.956857867763022,-3.6274984256766913
-5.4011852075349,-10.142718401412768,-2.066621589304021
8.239646303716334,-47.05284862897953,-2.6406383869794476
-13.983484484468919,-7.9502221393194885,7.012445582842127
9.442240532047105,-8.53130805507358,-4.290728813786821
25.868758067127917,-5.103915448942192,-7.471334536022187
42.383276648531,-32.143561164896035,-4.252109864916116
37.482922590300305,-33.86678811421886,-4.66266489138837
-13.406209785343897,6.929242772464048,10.218033327545433
21.378486647571744,3.743687653720994,-6.149867428573563
-4.065944949020971,-14.102498012599373,-2.0851617765074058
-12.822587013423094,-2.7353501678500347,-1.2101493525123006
35.883805196524,31.050789828411524,-3.7932420234845687
35.03714031559413,-36.68654261942943,-4.682333206838494
25.219003434629315,41.07035825655564,-3.8525570104983347
9.0959228059953,-31.18492114532747,-2.998296260557904
14.136341651871296,-29.76922538375702,-4.270076497788559
25.775717721964952,-18.56986846454603,-7.338862724633973
43.582728090652225,0.6024811682246364,-5.104618032385822
19.10578480806811,1.4391274992340757,-5.940717630159134
-7.641687942060362,14.243405669566252,-2.499136501177483
-3.8182460018881157,33.94950527958218,7.4517856874598785
-10.646146938639253,-11.216785705227608,-1.6190091005302736
38.69075527335791,12.848297060721585,-1.7521351571591859
16.044794982811997,16.094647311603502,-4.957026818205138
1.714649733495347,23.746952322634037,-3.382528765847059
39.18515122091077,10.39304707966692,-4.74778536726222
-3.152569464805867,4.579821703575239,-2.105623928880257
31.20800683086961,-17.6152314031219,-6.899958501550356
37.72907031609286,3.3079976887539324,-5.380758003564567
25.897435044135584,18.779871998067303,-5.753209410406442
38.92178776763061,21.50104932405953,-4.104169618383447
-13.662388782681436,0.8180972850855277,9.267245576210446
4.3523059534989175,-9.777679047569993,-3.0326280942715
40.09049043643245,-7.909868458439472,-6.8324519698445805
-13.347173347443261,-37.48605978224293,3.180785905138785
-6.533815324798701,0.3912417267208628,-1.7682230773415244
0.4240934202442803,8.914751149396501,-2.7672320018466228
-18.707463888762422,43.45495005435564,-4.952988512539828
13.432746882392596,-6.735381895247092,-5.272886240630303
17.405402329678346,7.241204133306131,-5.341686083595899
29.903952504773706,-14.537837694948049,-7.252628967370213
35.448755176152204,26.37591681592384,-4.078247339655845
-11.447995497322305,6.461774085096574,-1.376238931340119
41.731253639091754,21.733866179239648,-3.7611501083822176
4.076998576058705,27.781724932069217,-3.6382972528443136
41.220771173135944,-18.80320396148746,-5.870515198392876
31.88839937752672,-3.0907980867160902,-6.988124040805012
-0.2031794579639526,-8.835187745300809,-2.5041514173614305
27.34520395222005,4.099636969668623,-6.387663483479182
-13.603178342642874,-34.16938582849208,7.5504065690922975
27.906305166550382,-40.54023344929891,-5.1525175547014115
10.28284100841913,13.5585628784855,-4.151690062426151
16.001030582102654,-35.9471377090059,-4.119321472912922
-13.966628926607047,14.624119512906569,-1.8664882413801618
-13.19478356841088,-43.74150569580944,0.8411148748010229
2.1005355535917114,35.0793651417811,6.7663268636753005
20.60021116437794,-19.077174857596734,-6.486075066299792
17.259305443847353,-14.119600645275169,-6.023916913034433
12.325633079195287,8.48448192852969,-4.4390627074888975
18.11388066610481,-4.744232869277658,-6.3135522141895235
-13.739874676235374,-6.524575637199354,3.710955883799413
-13.389984315247013,1.1321557245792722,4.347969337199147
-14.104075443627375,-12.823093508513887,4.650649671897776
35.250427987075916,-27.421831726097086,-5.786748004673361
39.871907684794415,-25.162045562806558,-5.521627061963143
13.895252757598088,-13.51631925226485,-5.236648636256441
30.055642713439468,-38.389823839332436,-5.104269121427413
14.66791667815843,-1.240208012485822,-5.369102644079947
-7.977832846920409,20.586597674380414,-2.5856758868739753
-13.438807428070978,-5.590973770765518,-1.1635117407035978
49.811366606664016,-17.735684908850423,-5.535480841242198
21.33890775190025,-1.8042565247872115,-6.639946017680122
24.49477859824849,21.195695885155537,-5.8255327593587305
45.45157655342401,-27.146886746473385,-4.886477720123601
0.8128987607964826,35.34861861297717,-1.5196108524265532
32.52718208746421,-35.776533160707494,-5.062070517665215
22.5878438001361,-7.42317526253167,-7.372086623027683
-4.101614599045078,9.858892386322925,-2.466758434330004
9.806751011411002,0.8598332640625843,-4.291632516058801
-13.765061815963358,-2.9364015318707435,7.634527935683507
5.495688769467484,10.632670694007182,-3.233328529454923
31.728151139409412,31.055044204746327,-4.097823989003653
21.670695195984653,21.210955353240738,-5.453524406190266
-13.117206016702227,-47.68712713536292,-0.30347612103931615
-14.248000283022764,-18.31562942086565,2.141804324865672
-4.473488343700589,-4.713269542054306,-2.0148403012673066
-14.010381710019248,32.54425298220475,-0.21741011456382212
-11.738654473341557,32.647602466220675,4.928976122012423
29.173905749122913,-27.689722844078574,-6.218886890331762
1.2442560790053758,35.26898982645322,1.0830520301627706
9.858653141400879,-11.114516475098888,-4.407406143754877
8.231084331182828,-28.21986523888378,-3.0774633776620597
29.476428337908022,-9.287803443734346,-7.540093576329514
46.85132627712765,-16.681741879808467,-5.824359057476765
0.3414207943658561,-24.697949795159793,-1.9744590731158278
32.94829744180488,-23.737284688824275,-6.278587976854037
13.990319383169169,12.409510251308985,-4.806476875566514
22.870102870187623,33.44568798221669,-4.745132881449479
8.260985550468389,-3.0561185341052632,-3.969233132072272
20.85064148694542,36.94001782101384,-4.440802816664993
36.93542925486679,18.098075661193842,6.877218024698902
-6.542489196551736,8.792987155281182,-2.110246232509138
10.868341459234736,3.9077817496782976,-4.212603971827341
25.66600316468492,45.47114844841898,-3.529596914433639
-3.855553340484987,34.281219288589284,1.906996830041115
24.41165790547648,-30.404609668360735,-6.519543105567886
38.160362366532716,-27.492266843924146,-5.508123089835418
24.443519080052635,1.238842473071643,-6.935069002887825
30.726836513061137,-41.296312560083685,-4.750987051558248
-11.366267523903014,32.8734545396085,2.351254497438624
42.97898335410824,-2.573560901904822,-5.578860443096352
38.35835237366491,34.87451136276166,-3.5044081367917816
-1.33167553375894,34.69215013044547,2.7752152700273336
-14.893973108762243,-24.25555050285683,8.825340167909742
14.839948465240344,-9.112380003524331,-5.63464750934014
20.102453571743933,31.854452017812733,-4.88062011875769
-13.055358993346589,9.405608095144549,5.8689310090868805
24.940053363781956,12.988916819977176,-6.133498750501587
-2.0876276615816796,8.279766648415908,-2.5331357548617084
36.391324852808275,21.28518590953916,-4.413661991815972
20.142887790609116,-22.155091426467855,-6.147268759835211
43.49671819231001,-8.58191844324067,-6.298738022456641
50.03954594766033,-12.45179812379676,-6.039024550634964
-9.025008710482043,-19.78481005962082,-1.4699840429782738
30.293758999430224,42.04894516066987,-3.503254554073508
-14.152488844667568,-7.818072554222854,10.378021566727956
34.72353223587699,38.43114577236001,-3.501200275360682
30.806438798028083,28.70686655806883,-4.408361080232468
24.96487441780798,-37.23740742611107,-5.808929213311743
2.794618663501858,-20.33983192384995,-2.40444997795482
-13.91173036791081,-13.954955111954146,-0.12090832441893416
-13.111465936879338,2.4201270608865677,0.24545759331037337
37.795083047707195,8.062552950526092,-5.007383510807589
7.769784295190731,36.9846171348976,-4.4259514168490135
40.742406738885684,3.572200062110186,-2.260860684355633
41.00771650059214,30.512104412576157,-3.455182749818908
4.781026788772774,-1.768721721150304,-3.098120352512367
-13.544072663186686,-9.08027965730573,-1.30346539176859
16.536123876602904,32.97891194663232,-4.78023801366279
-1.0139720052897396,1.171795439459428,-2.350223199738424
-1.178898232834254,13.445817835161648,-2.771002004524359
37.3704913404066,23.745893159206336,-4.086717383892515
9.061116566272045,34.59610620001193,-4.633898096796813
-1.3446568214497678,35.03033219510014,-2.8022683072807193
-13.571550544219651,-49.33888020071783,7.911748920740506
18.922521810735663,12.352266904293593,-5.513210980709478
39.73780354299967,-21.161115608462712,-5.833467770799823
40.32320111609305,3.5354450819399164,3.7360943575356393
43.40951261405692,26.110269150688026,-3.424303738796576
0.8322781412425395,17.495089907279876,-2.9285298918896268
7.062876393905682,5.121739445997988,-3.427045700118786
-13.21097966735538,-37.10355449061008,0.7250778608795677
-7.367598517429694,-4.188801790565407,-1.7399320568306986
39.06296255350157,-31.956872950145268,-4.658303310926367
-13.123561140607789,-32.96465081631149,-1.0888828094292533
35.73296413580114,18.60992404952764,-4.7183470836557655
-8.926314615995699,-14.945178646003741,-1.6067491606396822
-13.234091456220687,9.049448561445871,8.952675506131023
26.122078759542962,-42.246585013522036,-5.200015263382568
31.100572838812912,-12.381452830561372,-7.301502754328357
-11.646143155057974,0.9847097152499806,-1.2235930503924355
-6.312356554231999,5.564210259847638,-1.8354108722366616
29.908618272179545,37.48868394997136,-3.8335643139848607
-13.038604836901962,-49.78249141132465,-1.579319258360617
-13.322351131403822,-50.86585866155802,3.554399740327473
20.051507659583017,19.150005349262504,-5.3385914366320995
26.656955218260933,33.41291664334378,-4.474857359748561
-12.555531095831777,11.627262469977158,-1.579469031382762
20.26100079570546,44.41658343169046,-3.902463370554563
40.50108910937877,-11.140556407193877,-7.023398582004976
-9.32779489785701,-6.591043176886615,-1.6226536693338585
-9.254621854513113,2.182669657939089,-1.4701390638466547
14.761162626198177,31.335519954243136,-4.921076254066227
26.161441088916252,-16.06427361930595,-7.490030098483623
17.48397113418776,9.658439329172898,-5.395922141887353
26.821497201626254,-10.298427722987514,-7.761371462746978
10.159306751486996,-15.988376703100958,-4.131879542939126
21.253877940703518,17.06459655665695,-5.595771958416606
38.67597572228002,-18.802365929871684,-6.1096338622474615
-13.471269901421843,-33.83804926077341,5.174355021435674
-13.405077143804741,5.147036239206464,8.487280852740852
28.09246537663779,17.85046590198474,-5.5651687466980135
5.171054258543631,-12.01167116342042,-3.1905868176752303
-12.983839445966796,4.803319426265832,0.08494581734752739
-14.37467177993943,-21.58562294108498,1.4336167192064215
40.03827824152099,-16.511684726232193,-6.15298807865327
3.481814574848142,35.92259688474747,-2.884987539552611
-9.204729987230584,4.615390452111916,-1.462906402841049
15.227614231755828,3.444294781575664,-5.051565062743799
-13.385057294235844,-44.37227460677975,4.277824649575082
35.762776048880475,-23.187366554897217,-6.05532841530331
-14.510479498011476,-17.737102067165733,7.726814754807011
27.53433403246426,9.900146073362889,-6.007063982796484
-0.9370861218431752,3.533117969154668,-2.346224118048648
21.473199872013993,-28.859592272146195,-6.014581990837665
-8.242294522466082,-17.497035363535293,-1.5460692819344364
-12.802345136763918,9.46412074876264,1.0762068398941942
-2.9150429423736597,19.44378109048289,-2.793263043378002
48.92165158209896,-7.7937315945309225,-5.801640857525219
23.54848230528223,7.500336796592984,-6.351964930960639
11.489284086365213,-5.2409342644271035,-4.782422115866268
23.535807887311357,16.6304606487238,-5.916409406060195
-7.420693820554016,-21.67962648379697,-1.5489685193922205
18.14693688509781,-11.765856118893762,-6.415967581735481
2.974922512374203,-26.451189234599518,-2.127749225025705
25.731773169975682,-39.418678596438035,-5.512999446669642
4.5279198229412385,20.311064238513747,-3.217435938570227
17.085748300138135,-30.051776173511207,-4.911274666910122
-7.796649132794688,-1.8643632805175614,-1.645770195013935
-2.48139425576778,-22.696790640424872,-1.8251151847251557
-0.3092383236667014,-6.500413752604968,-2.464556982616225
34.096717826800955,21.082820025062958,-4.694884809074425
37.40749288786459,17.763482018290315,1.2708689513906042
6.121802747452167,2.1166636950877167,-3.411309776819932
11.033021150724716,32.23307460456389,-4.840209812177761
32.1395965784274,-29.763418388618824,-5.675820878804486
-9.191337768802445,33.01392537239049,6.598300053479869
28.191462477453047,23.20940887967611,-5.187885804095841
35.84500171289011,13.387279554513475,-4.957869218609401
32.66904595857276,16.007580728450943,-5.168540578807681
-24.97365170825361,42.697502194173886,-4.565576336762252
24.719174901151955,-25.882850465527884,-6.891150839964809
40.072365828670584,-5.37918908817781,-6.251269831892197
29.77415900559547,14.589108433352802,-5.543820313298558
28.652351808993316,-0.30718565041680623,-6.990887120417508
38.86592729906196,26.05667422142736,-3.740410466861879
-3.862363368782849,-0.5790517300446199,-2.0568381363778054
37.508449398325034,16.14748059231299,4.782517108233678
32.52667265801056,-32.42592298959925,-5.378849361154385
15.800995398590882,-45.699549374830625,-3.865264012802908
27.178770558094566,36.765380568832704,-4.219999687304167
13.354038049401726,36.09726328851648,-4.5074936542939605
27.57158965610221,-13.824810920565461,-7.525058891503539
-9.035821034583785,12.460393145259442,-2.186723210589233
17.855464290501907,17.476663874973198,-5.129398790047899
29.184011759106525,2.558786703167551,-6.3900654789007
35.54505675957733,-5.2162760285428025,-6.917195859693116
34.98286847646194,-20.894236033397707,-6.300103272687478
10.085820086540263,45.24235138570607,-4.278357948929522
-15.43069349530456,-31.74053357052267,5.014043862804334
-5.488124129966004,33.77451746677991,5.290461081771721
31.050506383292042,19.199274284736454,-5.18654504589828
29.80267522807005,7.126524794182672,-5.900024191488041
22.730278649493386,10.45391795740015,-6.104032925120322
5.309206726765659,36.17831062209604,-1.5715211479482203
18.460231318599828,-8.148620893497764,-6.529092520544349
-12.82384217051345,12.171446584878336,4.084371505543142
3.4366173756439164,35.45628808729985,4.615682236550083
-14.469909730719843,-15.62512259846567,8.974605139257122
-18.827376132697967,-31.522359657193352,1.578014170449237
-1.0974115638533344,-18.32699327245339,-2.1501847021421727
36.04063621268506,-31.769066918694858,-5.02973158458229
2.8265646891220904,16.441252324477592,-3.000238112034691
-14.578684887797827,-22.485271947339637,4.48066822568773
30.01649475377632,33.22151322686491,-4.132569518519402
16.234291571840703,20.868982484118458,-4.7550501356184025
22.296336661342966,28.661667014325833,-5.1589808020071635
7.814381615497431,28.40890118733949,-4.18597746696845
33.372979484968106,25.473598818500466,-4.395337862775385
29.348902702229335,-5.045635843633176,-7.26547389597798
23.448826286987757,-1.1155098750497203,-6.964160653420267
-13.435086748149997,-39.25073174027774,4.858621980695782
-11.477294259100196,33.19456543414887,-3.241816423583933
5.2844480075592,36.00959829271154,1.1169437294877254
-13.27105849306544,1.1221002572080485,2.0591958583420853
-13.757054481539347,-9.976112375354763,0.7303452555699727
-13.294951285489299,-32.238197833938116,1.9277077859602105
5.728766071025263,-15.339011095754309,-3.1526496582861
38.352132948142376,13.260565684560179,1.7440388734163075
-14.30424381959462,-12.687963402038676,8.616320545484074
-3.224208023968671,-2.859894862295019,-2.1363358618023263
18.84622422484934,-27.378412339195012,-5.5574570595459765
-1.3256975233665613,34.5364139704303,5.343701200127315
-13.536029844028251,-31.71291658944961,6.201182768838014
20.732741865672374,40.11224545070277,-4.1676512703587845
26.566204284663538,-35.704498092674086,-5.766439474782791
-7.409036071629707,18.4438116947241,-2.5754201414619
-8.908039117220557,33.58619057667763,-1.9208221929931864
3.002561567250527,35.51123879710861,2.4090482534602335
-0.37317953941340937,-3.064781926054255,-2.4400737126360634
5.186866138017676,-24.314635531283688,-2.6027901050067115
7.113602158751043,-5.124926406396389,-3.694785134872125
38.506921283536364,-22.99904888471417,-5.811630591644048
33.00106372430239,10.958883253995504,-5.376360818976072
24.373592906889993,37.59233902530384,-4.135245576130952
41.59110569247015,-13.668328400421482,-6.219780980903859
28.312372092616513,-19.359950454643148,-7.041478603442995
-15.339277283156989,-31.552492809331806,2.3715698675375285
44.669720622769354,-5.996323620454526,-5.839873649101026
5.979319382440519,-18.773009865235856,-3.0462164122216953
-13.663256203450063,-32.010989138846604,8.491583598897275
11.133893117831798,16.282424148243333,-4.302465239058028
11.23589245200364,-31.249318306393796,-3.476558256389254
33.89100749972435,-25.70300738050883,-6.043007526723236
47.84208120826646,-1.1002061764825741,-5.009943876673242
12.760859951680775,-11.529766364873296,-5.101966175769176
-13.013547789288873,7.772608450454969,3.501684014720556
20.28241678088477,25.422809757395537,-5.437796834278205
4.112439451318318,-6.2998740082155775,-2.9552285458550935
20.85101986098921,-37.745086648396416,-5.050104542625431
15.349445442795108,6.607974372872082,-4.957578106659963
15.532768942244598,29.168505674572177,-5.10940315892701
-9.576728392924256,18.952433918706905,-2.4868612000932564
3.1074447088113497,-3.253730233702576,-2.8105712048629083
22.223056517325027,26.4944992112968,-5.3466112425783665
18.66433458085096,-35.83743794016545,-4.732142291583869
37.180208243165254,15.468155949978916,-4.716104972336952
-13.42208210504549,-46.55372578443963,5.072262194247754
-1.7740695212990527,-14.569759673822272,-2.269308174095075
-15.590477607251557,-32.06920531627623,9.632758101315748
19.81000195089065,-3.405716967342173,-6.5038281416038535
28.873180171820337,-33.36725340692384,-5.71740478188448
-14.233360078336007,-14.996275251902803,5.044328217562327
11.42263727427602,-7.406049159613866,-4.776952781573632
7.476514258399719,-21.62353218163922,-3.250518109408661
-11.986970604048333,19.386227923898115,-2.38619715821805
2.2425826026863147,-16.321995487152545,-2.5472965029359393
13.10463874209403,-16.321768367434842,-4.835445852208842
-13.1345321518335,-30.77226685905278,-1.026805610683923
24.51621994284248,25.203538508427936,-5.436266141187766
21.75595460712276,14.975945050126112,-5.761038749640496
-3.851622986982097,-11.720032914498914,-2.218680760760267
-13.25276212710805,-48.17993646249149,2.1475800386048576
19.35222474114562,29.847687870316758,-5.053789790960338
-4.911462634491459,3.3584495482235774,-1.9251796409613344
28.056426461188572,28.842995631954558,-4.712395105130581
23.036660453079925,-23.535971798451534,-6.76125713123001
15.470105123164574,-39.920218468089125,-3.9516183783761307
-13.38515336530868,-2.1749943056832612,1.0839974416130673
30.88297130358559,-7.6848923556876585,-7.351896139529434
-13.861334364967748,-5.766758492309879,6.765354893527253
-13.965176428836514,-4.073320120863431,10.379337929108894
25.498515193279342,3.1851026533300613,-6.941765618109105
-13.139642092461962,-41.70089525155689,-0.26827830941729164
24.26259795683795,-35.246922850814705,-6.079262550156344
4.645351440075008,6.447932987102283,-3.009617529724495
-5.944968779857718,33.94899559905729,1.057722963091099
-9.267157819424572,33.28625977636223,1.9100294300804683
25.516412632487565,-20.874626585811605,-7.190840979635562
-14.765396211232389,-19.973508727895066,10.467515331364103
18.061356238116144,26.41328238462531,-5.350149088564886
38.571487180732134,11.76589815568586,3.223533455287567
34.14432638518959,-8.942790256925923,-7.246234031234245
13.261327495862869,20.453460474804945,-4.383940340754267
-10.577734872483452,-2.1211041275595894,-1.3978656582185123
1.1993420118274216,4.579188812752295,-2.567652696010138
-7.55345371391474,33.39466757845221,5.293670406825742
-13.519536757034864,1.478063633798392,7.162460155271457
-16.676968465529058,-31.31716251816922,-1.0888784349059604
-13.15279505349717,-18.256603874231466,-1.2438499862462726
36.71329573755368,-14.615934625541167,-6.607123749844093
37.7598419570739,16.807913631997792,-0.7609108405593302
22.16503643871593,-31.368466000784295,-5.938556423263057
41.58128370798683,0.06449781573663096,-5.387788925976812
-14.134048627528562,-9.47581406416651,8.434937105406041
31.815871918406685,-0.7316575264029548,-6.5334917052746855
2.273372458371354,0.6329248613574026,-2.702003169160808
24.550913493827235,-11.199107166780074,-8.005203977397445
41.7396957613844,3.659640058744247,-4.907039278793919
17.495816856696198,28.492778002040822,-5.169575026327973
36.08443946946791,-10.403642267352685,-7.230748754294868
37.748485936629834,15.704577648531941,2.763736443125963
12.639828692332426,-1.068728243051828,-4.982745931955096
39.92181782323988,8.005337020200363,-4.262642382938959
40.10711472540047,5.510571167472987,0.745302682315854
32.1078999986145,27.1015933953234,-4.398769700174341
37.103690698868675,-2.679073613495686,-6.219978635260637
16.42452158782299,38.48022567459387,-4.380141486796235
39.18316843690191,10.908903800231942,-2.7494332996659008
-13.569060977234868,-3.5989114541943397,3.2429943721722547
0.056111838376464496,-36.17490366550391,-1.999733481711805
29.743600003295278,-29.651470756962656,-5.966784817381187
25.86653065321144,-7.4576780343566895,-7.627943013193646
11.806755679137932,27.661482898525012,-4.650109744018274
11.048007006599448,-39.68280657332903,-3.2927515922438606
-9.315086694992974,-12.929711681274414,-1.668324899361979
11.6282635934878,-46.1190042899717,-3.215113277095448
21.97838097949545,-9.381036273429574,-7.409411435980375
39.764232668421165,5.463460424404817,5.7024054648483995
3.215358341203677,2.581589723569584,-2.791973740423827
30.44781900618445,-21.37319650503266,-6.690299004712819
39.34041581357606,8.392207663422841,2.7191622837163543
-13.574408818337764,-38.12425951374107,7.278068344798082
37.91559260385255,13.632794052461165,6.736920656342629
13.682819626834075,-25.503521228053984,-4.47482731926749
29.651903311263954,26.958812747811027,-4.69333839042392
20.285426061451854,-34.68203344416549,-5.2060690591567855
37.892038620562836,-7.960416773086189,-6.963409697899726
0.17156354493533502,-12.410690530325514,-2.5481450531645966
-4.3896445296234665,-6.770319254471851,-2.0738374357765306
27.06446405758903,-27.65107660014398,-6.469389005330555
-5.05180978314887,18.145353306727518,-2.67596682126471
38.75817414811435,9.77233295330657,6.683277413488607
16.441401890741353,-3.665260897401347,-5.910897104031454
39.31033381956575,7.8827189682482475,4.695422513790623
-0.04704347762379982,30.328595896536303,-3.9297505642039092
-1.160847222876287,18.428053051808583,-2.8548587997474772
36.62629734490248,-18.364977929432467,-6.334892684724737
29.610301963799365,11.474748928911591,-5.711113695445215
43.833319959050925,-24.037086535549015,-5.233634750527041
-14.657801109958719,-22.010782072014656,6.4518875415301515
24.6674035285125,32.52549966652945,-4.78074446954704
8.89663988537256,19.50339727611647,-3.855263095568547
1.2658249117970766,21.139529969185915,-3.0086867625691416
31.406964494279954,3.1425122613008942,-6.077335111200193
8.934364403459433,-12.979189343614738,-4.049825796273
34.21990845625597,-11.245888726087573,-7.394958304086771
-14.49809135124209,-19.11663158487982,6.166505289128638
38.07598432028253,-11.997459605331322,-6.6749585074121445
9.60062569793206,-17.89468603456729,-3.910020721604638
41.50077213165586,-4.022481830560636,-5.923673338288141
35.8101443243775,8.099804168056005,-5.216090123382348
18.07230181663162,34.96501384258177,-4.6095180872443375
7.163542960892675,9.445575166286437,-3.516814139465675
-5.104373253541812,-20.512741807665293,-1.6897231044867973
-19.147791308386267,-32.05882540454346,9.110489438630507
9.405774964570075,-21.84836404005696,-3.6777669379507545
38.43896466124323,11.725473308691104,5.207195670925017
7.269592893164762,17.62763689986781,-3.6713380596789915
16.816639237124594,-27.958429263099667,-5.044435290076108
13.03295077337924,-19.965266066408446,-4.590687082966404
33.69068976330294,-4.522532847768108,-6.978702209605537
-17.528541852313477,-31.96453040561983,7.9516414859664915
-13.613129943055672,-2.212038913607888,5.417486322491994
22.92828236263936,2.5787068689322297,-6.5377907487137845
-13.625999160275756,-41.46230282432073,8.403256983600745
-13.071312015524242,-43.332190029064336,-1.389019059205181
-13.56019079557914,-47.03274789570615,7.568064403254692
46.732744403622696,-21.317537243797478,-5.377460417420946
22.920626410348465,36.32014329001714,-4.496227242648876
37.0292795296661,10.309244103919749,-4.9804463769204
9.902298033952418,50.1889489964027,-4.089276234337225
21.60582562905849,-26.90995824035434,-6.206459834042769
32.37634375864704,23.478139457309002,-4.68373991222889
39.074866812183124,-36.18594298695049,-4.25715387902627
13.145038704348888,-36.55904507601562,-3.5858799156588854
24.351021008900496,-32.72733183298134,-6.307081642073413
45.23631590582613,2.2926596324322324,-4.741898767476075
-13.351212565133963,-42.37235023161901,3.5512652639058073
16.39411517633901,-17.59315335953149,-5.5552749319611525
-12.832595148721913,7.452417162971348,-0.27319497419773625
0.09290150744298367,-0.4354973183569151,-2.4760138550016486
5.0356310691370885,-28.756184150844696,-2.3336503951378265
9.648916790829485,11.220920056502223,-3.9978418241873235
-0.4648477469942042,-20.213741875433776,-2.116749726932551
35.75341859196199,-16.309224766353495,-6.570646922995436
-13.50796260084441,3.011312992252536,8.410958300578303
-14.095780392268603,-16.8050979933577,0.6731392901617272
-3.0393608021387206,34.66515645089921,-1.9236244397431148
-13.283510906609957,5.478086315908432,6.475008668168271
5.363044110654716,15.062319707214943,-3.2824451223021263
33.870117772845404,8.539877724349791,-5.400643122450085
-17.437004546678185,-31.79760568285165,5.607001592927325
-11.196074116156314,15.844939900096852,-2.2721674966562735
-14.780590244421822,-22.195167496486164,8.628239707985633
-6.4814400573602775,-8.546180232574105,-1.9289992701576018
8.37645341215572,-26.29918766404885,-3.2324463096729104
21.74507705370771,-21.15207321164395,-6.616866073586778
-13.094643875070938,10.712548237218362,7.875088170984624
-10.92044409815155,8.495175733569942,-1.6203381759341309
38.62611613952297,5.307087367596545,-5.051894129243003
-13.26145941050207,3.823461904309742,4.465705693413646
20.592479703699297,13.442384057764935,-5.680955458811474
13.333356276461721,17.580856234929627,-4.529924237134479
8.708457381842399,-43.42820898634177,-2.994093153307535
-11.773745300702727,-15.926630153324657,-1.3388444167351765
16.723887316888472,-34.13091913323071,-4.451253836021089
-2.4842162101632304,6.4104576563729445,-2.3180690733479508
33.939650194388165,13.152482037900791,-5.171231395127303
27.629335206076455,-31.929805577349125,-5.998836763711041
16.91220268985896,42.481217577507714,-4.220300139911792
6.399705570930617,-3.0146968944583135,-3.506626526150582
-14.23152909628027,-21.370673755215318,-1.1034879770358024
2.2765605567278904,-13.00039532305033,-2.709580543683559
19.768949160846866,-31.971827320465692,-5.340438592219044
22.903700770343033,4.885881583877042,-6.326478724881375
-16.759727050413797,-31.472572301306137,1.0942819372613548
6.758033311653997,-38.592034988132426,-2.648434688109804
30.05509759010159,23.530331336403354,-4.945836502573894
29.128509920545508,-25.676172180944285,-6.492399714494391
3.340998571095991,11.588062873385331,-2.94236916249846
0.7717259831606128,-29.56720464372776,-1.9993597135416645
39.49476711120786,0.061261365319766524,-5.611055016865379
11.800301165891895,6.145661681583783,-4.304930095003411
37.67158929115828,17.888891965571876,-2.8190494545109783
-13.263313936244586,-38.74889586182307,1.760201845364302
24.526090602384492,29.979834393664497,-5.018848059513797
-13.70734695472639,-1.0324946157542243,8.354213416726978
8.15054140300654,-7.1845317526490176,-3.962937410054139
-11.933442353578412,-4.456864868207717,-1.3336075105004224
-14.238861143640898,-16.558658971987597,3.6515051194408112
21.426869224980553,-13.15703859222812,-7.124650391399328
28.484710851649886,-23.89240627224117,-6.686291550079885
14.708593759454569,10.666133831530892,-4.908194599833029
10.560161721084977,-3.614625320518054,-4.543273519942985
19.800814581775423,8.23777225464631,-5.79349123364804
26.459024450637166,27.877241310188857,-4.980062915766985
-18.944301443572815,-31.718125741455346,4.326751056887844
-13.652137359269576,-45.25766117832448,9.101804766478232
19.82853132694799,4.7414709938733735,-5.776902515509762
13.404766119814713,-27.357095857327813,-4.328141698298546
6.079337903513982,13.327249819668403,-3.3839402124186555
43.82225366547783,-4.247492518558367,-5.704759542547521
44.515722726091035,-1.0237111734463715,-5.214775079169978
