39.356792735458,14.34645645174227,-1.800346989797812
52.7486683338543,14.935528757245192,-1.0092715090567586
-31.845964612611105,-29.210054245343496,-2.3888123979110008
-8.970449494142755,-21.274693539152818,-2.4171567547448323
-3.7546559311531094,-2.0957055708727044,-2.332396111841786
-23.235368577148932,14.920514491139834,-0.8474367573312788
21.697041211922656,26.760614666181805,-1.4806443426447675
-42.164932545906034,-11.381777520074019,-2.41428261214452
-33.29987876793837,-19.67375880613977,-2.6145062797452816
-0.6698204103977525,36.770914531920646,6.1492066057817905
-35.53387667985223,8.67670674804886,-1.1225476578450224
-26.694761567866397,13.649474012418077,7.705905401519553
10.423461507666703,24.7207176560729,-1.1530276453424777
-31.967913931780465,-1.7609582475371603,-2.1642378846989367
-31.440577315173247,-35.985297556464374,5.002693432753695
43.53898417299045,-14.096945039739088,-2.529825732536359
11.893664514124302,-18.537520588909047,-2.5794226088359533
-18.185653164088773,-11.667906539416245,-2.5304616495457815
30.372183970393788,42.55051410411161,-0.9624347497231632
-14.85448032548531,-30.899601064243587,1.8952417607531606
-18.674621192889745,6.300642334475544,-1.3322769725426766
20.321691034492282,12.689076381462923,-1.9151180616984205
12.794234716099213,7.348608152436939,-2.096178004250041
-2.6801242457616024,-16.010146371877315,-2.5098165940679515
28.718707845584913,8.131562377724867,-2.0176413723015445
-1.8821205483561152,5.820700729717552,-1.979376628989907
4.534422892904049,34.942185105234884,-0.6486741770448383
35.97825148465738,-10.680838706471363,-2.5369593638961483
28.46642872426808,-17.7900705750512,-2.683328342683319
-3.9327233591376753,20.4466790699542,0.12776045259007282
51.82785559170159,-18.19763799782242,-2.360766242237291
4.428856051119345,-24.653523914289345,5.142363523574562
17.29574031410524,-12.997891149050048,-2.533792290477443
-5.008352096619333,-27.817384999856912,-1.910629227300475
3.2524315276988256,-5.353948154775273,-2.2849035996955687
4.583952165878149,19.82541837528891,-1.1248529788534656
19.59207002022139,-20.84076426036058,4.782652301215975
25.099088350971215,-2.011230069701841,-2.3240621255024716
-11.19193112647252,-2.152661017681692,-2.339806998843285
34.372944337639694,29.272901013668115,-1.3855784703873772
5.758616907822692,9.214536674564485,-1.6800174795810652
17.40522349736667,20.93667450960897,-1.5050715752678927
21.327602882937335,35.07751920961491,-1.2598669568598122
-30.353229959108113,12.798403691747026,1.4157401801679301
28.21205576176337,23.434963592737724,-1.5762505895143146
35.73093385139647,7.3283086785924345,-2.016303673002129
-11.587574963007675,18.060447997098844,5.796756085354815
-25.730792865868818,-4.949072160155058,-2.4184738331005926
34.16792011648128,19.071228321912326,-1.6817258889538207
-2.805284956383934,-9.041367615686502,-2.4330788916475425
-6.521205110032865,11.353691349281956,-1.3707380619992944
34.09662306149046,-25.62389276520366,-2.88315948022754
9.565430291728392,43.813017097481264,-0.825590472826565
-12.782953899438919,-17.009732467872894,1.1762136195297996
39.43068510874339,1.202451309139498,-2.1807223808051
12.740448570613658,0.5450847147843845,-2.2933885560105898
8.365150983191924,-23.853968141093222,-0.15510705760926766
-48.163633443867134,-8.652304642669332,-2.1031073310652157
-17.203100557854324,16.58756841653669,1.321046324670518
3.196158896416847,-19.138299556870138,-2.5141364644235766
-36.076610311978264,-13.654588429666864,-2.607533025160813
-1.4941968279930526,-26.93515516740047,3.495415851159693
43.94346876136263,-20.46507330242847,-2.6796869884786783
-23.543363014676345,-14.700722054216648,-0.851813799393625
11.102534918813378,-11.52346126340355,-2.4740761219211342
49.077148660340725,0.29162859444223244,-2.1092697439159394
-54.767128219438085,-1.6701410295980532,5.0573351945973295
-15.224955429375088,11.44167927051775,-1.287399473639421
24.040831579168742,-24.95228283165524,-2.769752293391009
20.119038821302205,-5.4391911288636265,-2.4408018272975527
-27.51877476864915,-25.24102860553058,-2.5242089737564184
34.78624975419029,-4.94898190642614,-2.3751532280071994
7.233731890697941,29.62443521523608,-0.935862998159737
-33.630102851729426,-7.328605070131575,-2.326674158026958
-23.137641251239003,0.7145637914061544,-1.8504264725564943
15.831145276103818,-21.630646329966012,0.49347668451421667
-14.679770281727592,-7.050059106995232,-2.5178574422396696
8.754895298568844,-3.565596394184977,-2.3063366118689492
23.038402551866124,20.113058502221286,-1.6905982015326517
-0.6732700647415667,36.96028909123833,0.22682596348419995
-23.098352478574363,-21.714392690134172,-2.5341907480537964
-0.6479472554841766,21.247433475168812,4.6366651274251796
-14.804321355000148,2.291873229205799,-1.568336907864561
52.3354122321667,16.215994063588152,4.379734100437581
-1.7230546712939603,-21.502811677220034,-2.2583596323556057
-22.20979435102042,15.044321177512808,4.485286295808656
6.966732972623785,14.959262946540239,-1.3191113444118086
24.06465313975705,-14.631632374380883,-2.5994959282539187
-35.93555677714522,-0.2135379947589754,1.1028545766362539
-37.909448527834236,-22.39711898075946,-2.4340300025745925
30.158638190085917,-12.716354301339722,-2.616320715466755
26.939854762095074,3.149732553084506,-2.1681494172326676
42.950843829690186,10.470157441542272,-1.8999919859552372
29.53069182613098,-4.943485294822278,-2.393430604725529
31.696096137671223,12.44340202552284,-1.882330964394812
-38.8459219883763,-6.978434290272525,-2.181758656921779
0.36016670844990684,1.1123894272576946,-2.2201618330066735
-26.27027532041488,10.699065581290279,-1.219086262100672
-5.966629204133308,2.6025145669548633,-2.1062404406686883
17.83897730705183,-0.7701443052568632,-2.313590317216092
-30.303291199032248,1.6810403098083957,1.3043740309745613
-9.272446680030283,-16.129243853048543,-2.643166701809658
-7.546749226781267,-5.813056582137825,-2.4483584652447212
-22.6052310249421,-9.196196523803108,-2.5548953784755035
17.77212451342814,8.268342384903388,-2.05208111595811
-0.5832305603273557,32.017419525132674,-0.5895336410359854
23.741412043693558,8.654290919413643,-2.0199641869536094
-37.59132808432434,10.659537405904686,3.1233984020994834
-16.176149744420684,-18.062173917369215,-2.2379755068721066
-13.579907604589163,-13.409074026473576,-2.472819164596435
-8.07802018430963,19.1789261725908,2.437217161366809
-43.86023866598016,-15.988066106250646,-2.580635024299834
7.208056179567116,-8.256432002273229,-2.3906370388012257
51.395513935305914,19.452619962047866,0.3371955842791032
0.4202867920757841,22.591618403456344,-0.971108191577941
-19.07913862638054,-32.26486796069139,4.856862021311549
15.37952243783832,25.294708304024752,-1.2722850345168888
10.162068404034256,11.34689340627408,-1.7838967139598965
-6.235006875184415,16.4734304872799,-1.1906610311171963
-9.918546929475465,-29.39781324807928,1.3334295989814982
53.692079479714074,11.700471081987942,2.3617283302267307
-7.784956859983754,-25.090733361399163,0.8062284015036851
-20.000301579689868,10.853702462962657,-1.2579155693183885
12.420061028654276,20.427280632918848,-1.3215523702566385
-31.40908106346411,12.344772924808058,6.06936338256259
2.747178943031143,5.714554230895272,-1.9659631185760416
21.376864878857145,-10.930345299737185,-2.513541729662029
8.153757482024803,-15.961849209044496,-2.5464534582035796
14.729648116253317,11.636620823324305,-1.9652128557657191
1.7224512159077114,-9.588140086839147,-2.376722563309225
-10.89693202046594,10.251988935646796,-1.3809405631628244
-26.365345930345498,13.891778539287998,3.119910229506238
-44.3876663665416,-5.189681939446262,-1.9206828751536282
8.369491428867866,5.3698617747375605,-2.1690021689327783
24.740206815153282,13.023254777579137,-1.8899404571999485
-5.803740317763171,-12.872477098743484,-2.5394579983786776
-36.017734306157536,-37.35428180764529,4.789469618085223
16.99055421834045,15.58423544123515,-1.8429633943705446
-27.470853956398592,-34.744952189885346,3.540623055632738
-6.07058764905335,6.953524346873051,-1.7772677270337514
-36.45437814477515,-3.357602447761144,-2.023709816014488
6.140428487614997,23.87186038024031,-1.059359830505488
-2.345725831836931,10.163115903405602,-1.4818411111097702
7.965795172416938,-20.29064150463431,-2.5528724843117363
-27.245121411398042,-16.096573534913944,-2.5295818444759193
50.37656084480232,-13.619325718462544,-2.2428054020684596
-27.38397227468309,0.8457039695569977,-1.8519797990019833
16.42477148338748,-18.813672580671987,-2.614600858639961
11.95634684290477,-22.713407569697782,-2.0518236964116525
16.173899327422077,4.365896318614341,-2.1706978587738726
-11.826022658655827,-30.089213192219134,4.998597170230428
43.00867260360023,-9.944289406701836,-2.440222575831929
-0.9529876289051152,-5.293083086400517,-2.3446094282176557
36.379566769959325,-14.81626537763198,-2.655308536462218
0.7538763997138905,-13.685648648944266,-2.465012367635223
-18.24117746426779,-15.15243459653024,-0.1455069126775007
8.41014742604395,-23.98227947897719,4.249312130159993
26.177519157932466,-21.224277509339945,-2.6939142036211736
2.0582218967815344,-25.811133177988527,1.7503152200397323
1.791627480441034,9.951055843975722,-1.5632977237834778
-0.68380083582447,22.42314115303798,8.495819714967983
-1.1528713329413558,-26.704145451587873,-0.4920772139590304
-2.2093628856306404,17.077160888530344,-1.163999999246402
-18.65294970310854,1.2645294988718436,-1.7256119009747464
21.720129687263423,0.12906639983586327,-2.273935131923752
-5.926220159022737,-18.303370338891774,-2.492822330030733
30.818393452506182,4.758802010158852,-2.107946743699203
-22.624659271207857,6.716566995138519,-1.3046287016785454
-9.600065022834944,-19.357620511728683,1.1944452626483906
-9.81299671403839,1.5191607860898686,-1.9119149532009652
3.3635577626209936,-1.418240172282402,-2.218482513320593
-15.250061409946202,17.04139278052159,4.694901926817468
16.637064066874377,-9.028551020574254,-2.452672618956917
-4.397708843810006,20.18056633069945,4.2402810133861415
-19.685149157338767,-6.6330900299548885,-2.4327598854909485
20.91708674900261,16.524780857333734,-1.801952011439486
-5.033984090720588,-27.95975019992141,2.2709436276545354
31.767220270792226,32.147014512378405,-1.387000020539789
8.572309453925403,20.33044795292877,-1.2196765473010325
-34.45865196115123,11.626026525135202,1.1160776710402713
-5.241396933890323,-24.00743160271664,-2.268072398925416
15.611058674824271,-20.789739733428725,5.005773465204693
19.625803121410513,-20.876647329833474,0.8793454398293036
30.063796716507724,-8.925018598252212,-2.5068608908418337
25.005828689217363,35.9575255430549,-1.3441171496697002
2.192699767717716,16.896906833215223,-1.151771490851548
10.81414215723598,30.79926076892104,-1.0017771247250946
12.930953255620954,-14.811695916335072,-2.547655921694901
-8.747735801373086,18.802541384404964,8.146000033797147
-8.571323431983997,-28.872379638633902,-2.407514926479223
-7.479570462944989,-1.7263427685691684,-2.380084887313973
-14.993624033664867,-1.3809762041835536,-2.139170473981646
-15.121398804462542,7.731821821603101,-1.3575999237647403
-26.216582275522434,2.7497667374775117,1.1329142514935269
9.067380493963858,0.8351441031419227,-2.221586505331519
10.856462435863403,-7.7492477191445,-2.3988351384397624
-14.500968737331075,15.050738659988836,-1.1553323483067142
-11.01129518790688,-7.0648418272998015,-2.518987209687819
17.396399145010225,34.022756253683156,-1.1727077509893018
7.364588423138339,40.904390821526405,-0.7651515798680055
-13.576669708551625,17.625791212855475,1.503948500896582
1.6200017199880759,37.52436228248621,3.002364436716357
25.68059405735775,-5.606688344682651,-2.426142351808689
25.052505400632256,25.352021606562776,-1.5318186269464067
-19.454108823017695,14.99698772541703,-1.055693155761028
37.52192351869162,27.46173245134821,-1.4269810853967007
-52.782131797099304,-2.258219802613116,1.621325620352587
28.387304316528766,-0.5281077634105034,-2.269577588495952
-30.735209555884843,-5.1328809627715275,-2.4908940743766705
-14.29234679881433,17.205765362467353,8.158414688650245
3.772792953433701,13.304920495723566,-1.2764569819747411
5.5095087567736964,-23.87055439555382,-2.564725024677456
-3.638537360416944,13.479325359958494,-1.288666579510398
11.59281729912957,3.906305216756628,-2.2000775487320223
-35.825845679140826,-17.205605043453602,-2.686556089693582
18.925571258728365,-16.13016927907668,-2.6033259462576894
31.383389194112755,21.240533312370108,-1.6286735847289984
11.39266260809503,-22.99460457878935,1.4185897227496997
5.405227578031907,-24.803950771896815,1.7160432583981045
37.63186048668476,4.399811990628104,-2.09444095023373
-26.04091304498263,-8.420315665721395,-2.5260956025843004
-18.80373162999291,16.026325975773688,4.443359079846014
-12.663626146670087,-16.85094810812648,-2.468631098073651
-20.16620108384097,-19.429574725452504,-2.238487840082227
-23.368216600977963,14.603947216957042,7.8081951277733115
12.524894786131464,-2.895954955172368,-2.311953437601561
53.90412723086094,11.055576801904106,-1.0130236953878735
41.139706723186656,-1.776083365511937,-2.276301322698811
-24.721438173786165,-11.872638126501368,-2.531280828007353
-12.953880800505,-9.978023621664844,-2.5281140174354353
-0.1169161485517722,-18.470887400738935,-2.3933632536686464
32.62383968560381,-29.217308968817996,-2.9604194414331766
-6.289504909455356,-9.53508049492234,-2.491507003206194
-8.616659832752205,19.13120743323485,-0.9017679130618956
-27.01227414003001,13.811823452825893,-0.18615753013424438
-21.10331433749302,3.532728752636106,-1.4463884175135093
-2.4455283128676673,-12.688072661606958,-2.487942880170377
1.4379064029205169,-26.103326523957893,5.033589698929474
-2.9624119424141084,1.164322593995954,-2.3305419689310978
36.95995302820936,16.64669330412097,-1.7421430312450736
-16.313608538536094,-18.21565943061014,1.0509339338982897
0.14763368606540261,-2.1903065348322746,-2.2776217675337658
22.58419649520949,-7.619696434967534,-2.495298843899099
3.456076388784607,-15.859526240806561,-2.509631731995728
-4.204189481232853,-5.739662928592279,-2.3988975273650484
35.0005346799173,-22.47547669215528,-2.811764833274019
-34.27502454633071,11.564072354732593,4.687052995577776
-9.34925367802022,13.108761535572352,-1.287074222786415
23.462784953644057,3.035504941862469,-2.1836549088240207
-52.04558138373476,-2.2267073821698387,7.400915165086887
-4.310538326554386,-27.843858807788123,5.424957488599669
9.339280101298773,17.20964981310035,-1.3235963408248255
6.563671410774251,-1.1817493798155603,-2.2486886761878138
33.74711862944103,10.004256336436182,-1.9457706864597297
16.503181579877452,-3.815798159460389,-2.406474781089002
22.73577648255159,-17.52679415636992,-2.6496648718461335
-0.11569928594664403,19.470625187351267,-1.0763456907182476
12.853978426988096,45.330120983493785,-0.8674232845664995
8.00055355567099,-12.469699820841145,-2.4772059798615347
14.926108748215356,17.954557182428143,-1.5783115233182885
-1.1678435919753993,21.200686323065813,1.4352931698925573
-33.546796517550185,-36.545615778356115,2.7423149793296444
-20.71029970827083,15.563960627506303,1.7512319866565869
1.2486598638163335,-22.667800961423396,-2.376705053302605
-15.46361047979567,-31.180903743574774,4.944737191061221
43.7632557417175,-17.200358504287312,-2.599357047455481
-33.48540576887515,0.6229511104792477,-0.6165679277462092
33.81831723378216,-1.8760323460077228,-2.2895598159619888
25.521677471296577,5.890600745404273,-2.0937521462072426
-7.061163894233297,19.37096904669375,5.569750347544397
-21.472033345403943,-4.12994045716405,-2.28912475615541
-21.217040955756048,-12.186404548438187,-2.561546258952337
-32.417171804799764,12.283895289941892,-1.0638891052635437
-30.085909513758818,-8.12123031862716,-2.491043831081159
9.771231519285234,8.321437065036475,-1.9843701993558442
-30.7022922751546,1.3254793224438437,-1.6987886905968312
20.80156974159327,7.873158566068526,-2.0528978393970143
26.902194916620047,10.561389808463499,-1.9536488338188454
22.425760940149342,-3.471756652049302,-2.375735282016466
-13.615257081535892,-4.218652697889954,-2.383278594732976
15.114116125564045,-21.751558011604917,-2.444749882487313
-28.95295687849628,-1.9515221629891095,-2.319652721371261
-28.415257391463157,13.23337328196925,5.241067156635907
51.06934998652943,-15.84539920719055,-0.3280984857512651
6.254274390046133,-5.330486633670925,-2.3285120328949684
-8.70934105288236,-22.159370674984785,0.43832853891797113
4.424110672337065,28.577477701966952,-0.8874685426816565
13.878427775873913,-10.429752660176545,-2.4664324488175566
-36.07847169067461,-10.695380633340394,-2.543733836117752
-7.376711626657162,-26.014298405436755,-2.495778373231704
-10.318544450974962,-13.385227108254528,-2.613076845393445
15.813978502881323,1.4565343213165385,-2.256212094793702
-23.50380352847504,12.017884281876421,-1.1345336426580126
1.873118946360213,33.76579880374655,-0.6225789938452454
3.2856428831642646,23.094688179890134,-1.002555603536959
-10.852804957963222,18.369498831076008,2.7645453195852165
4.303602854115824,-8.175531115647972,-2.3746057361270907
2.7326032351733978,2.8340047835185405,-2.2622118049967237
18.519675647386812,18.286700390963553,-1.759339080508843
-6.951550246722473,-28.468811540320786,0.1798169771393551
-2.415744544509683,20.662010527745387,7.014164894655059
-1.3510681894905894,-24.355045228242883,-2.251417704903613
5.597102425788898,6.0974392776363855,-1.9120512110062735
35.462768824879696,-7.74237123162117,-2.4536731927422166
-24.192487786330872,-1.9291484707811737,-2.2400456256705783
20.219712605402865,21.49171591166301,-1.631195909041091
-17.31401443045002,3.780063759041374,-1.4166246790107855
-12.438712347865984,0.38414691277252416,-1.924100001055336
25.568796302539752,18.23583122062128,-1.736083801869386
17.680151199341935,11.652306035287626,-1.954408235292772
14.233206278092691,-22.18394121618279,2.7593716983950167
-38.65279241308354,-36.33687354136948,4.896585656758186
0.503120286556751,7.421477639018462,-1.8148181879444611
-17.81174061918254,12.713864316541201,-1.2097254986769557
-14.050187966310288,5.12778537412433,-1.3804949561543705
-36.92074937873295,10.960637406308212,-0.23631785625461257
15.079018039689508,-1.3947340987785262,-2.341359653535216
-21.834827758539248,-33.102262144265566,5.138190154134997
-24.921720741880144,-34.023746383798205,4.939234117343945
18.20437299799725,-20.852108260206382,-1.5301641094040863
18.165376769745873,25.449145217908136,-1.3437998651278658
-17.955232561620424,-8.895908860859969,-2.5963894972532633
52.15804444639329,16.86527649728385,1.6822911289798064
17.592161776569068,-21.178230000081196,2.8823256466422875
0.1709916296685462,3.960706818880707,-2.150392182989924
19.25998791149834,-8.120951237202902,-2.447918018033216
-17.760963666691165,-31.791503662600203,2.4616673477595845
15.630388536697458,-15.445726550194584,-2.573515194066699
-10.33665624323649,-17.00070373241015,-0.12208487739773932
-20.549655150623664,15.443234920710028,6.944197187363472
7.410530151967484,11.54024544765454,-1.6061789098834294
-8.374419822205201,9.13012605416884,-1.4509336180200707
-23.577051892966697,14.734458656204557,1.879392028095423
5.329126859303514,17.175650871382466,-1.2156387246338958
-15.457792733405112,-11.31332641093683,-2.4820273122707874
20.26864538275604,-13.72943874004327,-2.5629240446559454
-4.65469880387679,-21.320148917318637,-2.2845965266810357
-41.19677344268741,-21.685998042252034,-2.5735903697557476
49.57327649552524,-11.462130274364396,-0.3122066689039606
9.241289028976736,-22.716073207827694,-2.5674230177852757
-24.809834073961593,14.262780430821428,5.510030544605153
-6.12458938709896,-15.582929367071706,-2.5887279318519307
-11.999568603880427,13.744846012077195,-1.2333788455432004
24.91611995498493,-11.978019162423639,-2.551689758587348
15.026960858545518,8.878014409018542,-2.04405580891956
52.92228337672618,14.285559560481131,2.3558964143880434
-27.8109842348432,-13.356413548474324,-2.4662027137220126
5.1215146764499915,-21.00955771370589,-2.532556782246567
-29.45883394576612,12.849306006186977,7.841190223782285
-17.25067227585911,9.36154204586534,-1.3267513836170264
9.421079117817152,13.908253307179415,-1.5505134497589401
-16.809430491515403,-15.418103438325643,-2.38794551573769
-4.312279429640511,4.701418797875552,-2.064200506294992
-5.4452954433838245,-0.03235729662020671,-2.3739063628465717
-32.212559914752006,12.206361350597698,3.1795100268907035
29.894276338795702,14.35692869197649,-1.833238332442487
-7.797922229742073,4.873304907672043,-1.7705085934342553
-25.243338503734922,3.5913277917440887,-1.4094907702186252
19.943372138596118,-2.339557200113503,-2.3516563911703536
-7.786846799226628,-28.802788748830714,2.7539269069474344
10.333881716018588,-14.489326722471015,-2.528417817781004
-20.358807718491096,-32.57674253649429,2.5967822653292965
-54.95289591161969,-1.001024090932309,2.3621515613146054
10.316768567327147,-1.4677495083050074,-2.272962803782366
-12.272324239677843,-30.133223705210554,2.199394144562561
19.090167710833963,1.5222811383259143,-2.2428152400296013
51.9669277473093,-10.679248301862705,-2.28010100474058
11.058845636146447,-5.150255384094089,-2.3488720637919207
-0.3461380156936493,-8.017650932324297,-2.3807198410680894
44.94157538522488,8.073481453753743,-1.9624133376989166
-11.65571322034732,3.305137578169265,-1.569802389621566
-0.34420504409103336,-11.145390968346153,-2.432202469770909
-9.69156198350537,-4.365061282793208,-2.4554734264601747
-9.811014861056462,-18.62042358420524,-2.2034245320194
5.628712619165029,-10.381718164635094,-2.4244620813624365
-12.524291921109576,8.261240748540981,-1.3848203845856408
-17.507685846306032,-5.190113531987251,-2.3660921186988797
-3.728937434023948,8.015045494639512,-1.7020692496033512
48.06812136488787,2.6478410490515834,-2.068998571942642
-6.380866391661177,19.733652923885384,0.38181356978701575
-3.562123175785188,-27.449660147648505,0.16984339412672073
6.018487628150053,-18.61294982383918,-2.534667609679958
-33.13909053905142,-4.28737992096265,-2.2588006059244887
-21.199508175813047,-13.971778537241816,-0.15579034239734407
24.430264089406318,0.44502264158500227,-2.2552782388177417
-27.199698386174624,8.074755702102106,-1.2194103871880453
17.431220410037945,-6.361733898938226,-2.404322481157089
22.156198559700663,5.689965717615448,-2.1113684307991045
22.18683674847439,10.655378624602715,-1.967468556162853
-52.45391053515087,-2.2441772520730985,4.196823698279427
-5.973512414530748,-3.832602763062749,-2.3930317191416415
-16.27139099425797,16.888282288245676,-1.0078955293250906
8.806165611598088,-6.285763818852844,-2.35993758240607
9.031541615855016,-10.092421528809753,-2.435711907875497
4.191520537742143,-25.09843166433748,-0.4684574485759077
29.219803170705642,-15.395778825789483,-2.6401199577265686
-43.915255740772835,-18.496777091726038,-2.6341604372302427
-27.205703971619574,6.290391621716677,1.200091308671882
-8.660765048146258,15.516584633023875,-1.2012141993125967
12.150485582893364,9.843601751241302,-2.026184264169408
-18.094734952192432,-18.76619508860366,-0.8000360149108734
-29.851418527276337,13.02054290681999,-0.999471830727024
-40.694601240116995,-9.392629017765907,-2.308720308822895
-8.261987763862477,-23.53058725407714,-1.6858159877101668
13.544931589460681,-22.29681420572724,-0.1600794238675332
-13.911220968372092,17.608839614405216,-0.9644619650825101
14.623676217378025,-12.77679646869948,-2.516167349392692
7.7605162717645495,2.9372675197673517,-2.2415834688097354
22.98633435077868,14.748021336856796,-1.8461458915479447
-37.42862461219472,10.613400601603816,6.01510271916989
-20.99177771269241,8.54929777768377,-1.2529626096153226
-43.70734588954377,-13.542609702506862,-2.5294436147300603
13.938972738419249,3.217222821479802,-2.211802209746318
13.934025468856932,-17.19951495901033,-2.5923682351799386
-34.67955260750135,-1.0575640093054055,-1.9179599928056181
1.6245444716899398,37.62958677608821,-0.23111022389097233
51.98043066701467,17.515278835547722,-1.0098184164927075
-9.290970042927244,18.752612066180802,4.83462303469192
53.31787830456919,12.997336734789295,0.3367387975417255
5.107375973440523,-3.1918502985015342,-2.280866743563296
-0.6714202402621751,36.85873987479929,3.4026121717580944
3.469431004729973,8.228247807321152,-1.7193524936392717
-20.882488283617,-0.12408892677843233,-1.9274798154169188
12.807109965793826,25.04732025565763,-1.2090395264768798
18.452374754165614,-10.607977818848507,-2.4926753068762477
-3.5247580122785003,-18.287412801174526,-2.413154495140434
0.8859437039689358,-16.083159334692912,-2.4904307994704844
41.3544003394084,12.259417646225808,-1.8537774992912344
5.770818926157485,-15.24700555072328,-2.5205833730351577
-9.510467825432986,-29.373464035079024,4.386394767281278
-33.408869569307754,11.730420010587348,7.2693085310819905
-22.061173082950614,-6.835598240096404,-2.4179256780578267
12.28503700520024,12.431911244509685,-1.82976580825535
2.2613724451318684,19.276892317505155,-1.0729244948991543
-2.1453355010131094,3.435777664685304,-2.2618970448681606
-28.284647849027518,2.2664940443022235,-0.17411091545540922
14.87344994696754,20.305599845573212,-1.3913941383614807
19.152792742229483,6.193045554552192,-2.107335821708341
-11.811116707826564,17.921116094535606,8.128331910443062
7.44326453306209,7.53225277264246,-1.9044532247108321
14.088795112037866,13.911559791267821,-1.8274990640401028
-7.677535466498259,0.6152131892402429,-2.1824368623539154
-12.970277518779177,17.721742863019738,3.949564009699492
-1.7531996547654476,-0.8419860089939658,-2.2828562495653526
-14.621508108837064,-17.588154277975523,-0.4210713859145584
-1.939160828779155,21.053982189877086,-0.9086857464355048
1.6167381580753817,37.44876786920116,5.325327574607536
10.095547289059608,-22.41471905446465,5.046929892110692
-18.59505434690783,-13.963064867250683,-2.1463249253926
1.1719358796684278,-4.341553612974229,-2.2982639762828008
1.9626583606040027,-7.270864084240857,-2.335091945768081
14.948642404543323,6.513381087096517,-2.112807492534242
1.113377045043718,-26.023336551809766,-0.4795239644367763
-31.350192671941127,-35.881847856777306,2.6339638763716287
13.366985138826111,-8.127306525852166,-2.4187349536509
10.2730971056899,-16.910926125399676,-2.563816190887693
-8.134051775534505,-8.031726398230582,-2.493375712949032
9.283917072238976,-23.648189414139683,2.030811592513259
-34.74607378819856,11.249998176181869,-1.1208307650152027
-2.8486589859324516,-27.159431984443188,-2.1829422953490676
-21.33327855421938,13.699093722351874,-1.0896179882617807
-5.733922217024438,9.182937528881652,-1.5380698011488942
-18.964483709375124,-17.39478155629216,-2.3752229055216545
4.046549031259554,10.67883371411477,-1.4796909462237413
-10.631295973943248,18.509531765119903,0.3929660706480323
3.087911312953786,-11.439476126536478,-2.4325698980441643
-7.811774033347512,-11.842886727719057,-2.551489138615769
42.602098462669254,-7.670250426378689,-2.3928888771502463
29.021646833631472,-2.6843578497640106,-2.3297947217107144
-0.200098761590513,10.984757027661646,-1.4235563270219191
-28.514999444458795,13.279824517691567,2.9033461119299893
-15.78129138681684,-3.642444228486778,-2.3010036081111123
-2.4294905460488443,20.779580917860542,3.2346716926116263
-17.184040644851844,-0.9465859475266759,-2.0155359373903132
-13.223981476150323,10.4554486610921,-1.347566502490346
-37.20690115204985,-37.65172971068224,2.9261646653200444
-1.8139495991153323,-3.2469063281852164,-2.3233396831545674
-53.11347956594096,-2.272396116976967,-0.9787056412149614
-47.71700678146367,11.651598795922338,-0.9042726787937077
3.6016261874426583,0.7848592094523906,-2.1787631365253453
-20.173057415236524,-8.789748733127697,-2.5770633100059888
-17.088299445186244,16.476874922403336,5.791525984961415
0.8764683637228253,-20.485990175302646,-2.4013829375538824
19.30255423185416,9.860282723444671,-2.000611671877581
-0.16762123704084442,-26.481482957702827,1.7901267845864706
6.317779508463486,-24.60084720942522,3.9270290966622885
4.771201861908828,4.063280656086988,-2.1130567133719085
-5.144516789560861,20.0322710434523,2.165244917908366
6.284058900576364,-24.46954229108662,-0.4650984790225238
-22.124446559163502,-14.195034534057333,-2.426251687506989
-8.593567940921432,6.967515511041619,-1.5717645748545594
-6.867509141700434,14.29966119118025,-1.268055202117262
-9.404925435569725,-0.7499641079530338,-2.1795456107601194
1.7546813508417418,12.333604135861425,-1.3042151116769694
-3.2859595030330864,-23.096913691731263,-2.1533028210164304
36.44293149045537,-16.97197070075861,-2.717512890049853
-46.581783693512996,-7.192895574491643,-2.0257138504076106
9.969814762693092,-19.516974871405523,-2.566657626681037
3.3035836502566385,-23.28549508491061,-2.4621856211172166
25.20217077826195,-23.134159238865973,-2.734648611836948
-4.1607204330666665,-11.400419458826839,-2.49149662530187
-6.009529945560083,-7.412011325749024,-2.452500687757867
-29.400803849916016,-35.36611067474545,4.814825276045334
-4.431643399893838,10.89345172381452,-1.3773015614148798
-1.7647401414267496,12.438870099791412,-1.3152740360885853
-1.476964137420828,8.221619818338711,-1.7149093170416005
-15.765596061030925,-13.426395143306635,-2.4251908917728375
2.9921364363247607,-25.591925556988468,3.660628269462856
-18.869863663838057,-13.111764708378539,-0.14099323118835205
51.57752214419933,18.801193489119743,2.3593750984154895
13.121826216857043,-21.014744507080238,-2.593713917730706
-9.554372179351585,3.620454866297481,-1.708361597238677
-30.224783801451114,12.744244520529904,4.250195174102214
-6.863365951210894,-22.120467478595334,-2.4247157006625013
10.456143332180158,-23.215335283310196,-0.46874046661760793
8.207344835516624,24.32594133522591,-1.1033790141379656
-25.008584074722542,14.377038656532585,0.17700297468218054
-37.53395084933989,-5.325055185782458,-2.0956358431665363
10.432244485177254,5.822880520926342,-2.148647130785276
-34.4938037377374,-9.311073829813205,-2.4151625240130694
-0.10152964909500366,17.08606692563131,-1.1550015296637737
18.247204159481328,3.742447515033217,-2.1814790125564913
-2.4511994833818216,-6.981148480169165,-2.3940378112078475
18.79826151646155,14.11565355223297,-1.8791503064280417
10.832557100263152,1.946003185158823,-2.259512542429884
-7.466201741569293,-19.703289459323628,-2.467636117214038
-11.662582516468513,-11.802014976848143,-2.565375741465464
-16.828606653798474,16.62978856764088,3.361260901358119
27.50056176876202,-19.629659921060945,-2.700869283362505
31.78359305023758,2.9274033807491295,-2.157595918699946
-32.31473485885506,12.245078679863038,1.0605272589117622
-16.49834872620451,1.1184637807436708,-1.7311876779081077
36.222432652867425,-12.718309667493275,-2.595105486344294
1.4678681838420709,-0.6189248922895967,-2.2326842706006556
-11.780902426097413,-5.133142192748607,-2.474278740777485
22.58916664380108,-5.515851152885913,-2.434356575396002
-25.82769713485283,-0.47047833633503283,-2.06492112701774
-16.07703047484234,5.424239548217064,-1.356317940869378
8.195889932598506,9.616259833633078,-1.7950733373210819
-15.275117191118579,-9.279371279936063,-2.5391966336665943
14.863928723071432,15.799004648666436,-1.733988795217372
-4.334755918771472,-14.601562934910246,-2.5467283597467194
-0.4920068129261601,27.00953895460933,-0.8290398717395935
-9.356261116096732,-20.09015858396951,-0.6801349437944015
16.149273521130397,13.083182234106198,-1.9183421135557255
-13.480266301928912,17.50063634396523,6.259438714017299
-1.4019775809091877,15.221641537412998,-1.2219165915860624
51.813004558228016,-18.192423548411764,-0.3369525540057908
5.619995469749058,12.464937956987857,-1.4314665698740177
0.15273046012852534,-25.702471018062578,-2.372370256877889
53.32904669724628,13.00005926173572,-1.6845540889754158
-0.8287223583197633,-14.938972492679301,-2.5016730507307177
2.759950500049011,-13.456803346515317,-2.470501234655506
52.91117504657508,14.282561036950664,4.38092310736858
4.857974323735158,15.00404992696303,-1.2606726813748563
-23.066662099470427,2.7059503790215236,-1.5699487277334023
17.629091030869134,-21.22268708564188,4.961826493882274
-32.161413429148524,0.9932465140837354,0.9874800742642981
-5.805497728115407,-28.25047910174721,4.097435967455741
10.808273286026974,-23.231497883438806,3.3199883284189458
-6.349196627254537,19.635710089696193,3.7113855227396764
12.949061679807583,17.678377631507605,-1.481307866464539
-13.82114456451042,-30.654777289148743,3.9381169575534964
-4.939555536621463,19.23417094188026,-1.0977578060135011
14.26771572668494,-22.237727802565065,4.751707809619468
-18.864519788180672,16.0781354175246,2.287795696804789
16.968965507416275,6.185578340176485,-2.115212951972131
-3.5770464546607457,-27.564658678919773,3.6015637240574314
29.84951391276901,-6.901682545140913,-2.4490192145800456
7.457114306190124,-24.067050699850316,-2.0140718903577977
-16.096891051412353,16.707166592906567,7.5066683069464695
-1.8036080688781961,-19.49951509105717,-2.2934064086892976
19.301967715264407,34.54984700329265,-1.2145568271062521
-14.067510128943876,-15.325034682866326,-2.436276923603987
8.07905447159906,-17.937584860095054,-2.5490795632487044
3.0346351756554664,-3.3910951952103865,-2.255721556159069
-25.69401577993347,-34.18993277141961,2.8910496098246674
51.083603122643005,-15.849821558987346,-2.2987153127571416
7.100711178908101,0.7419874523506721,-2.213632581055749
2.6912050553004425,14.947488853147151,-1.2140632272382441
-15.341325668225055,17.14337729260615,0.7060205106885608
-21.084646105175548,-2.2032360496178383,-2.21938435905026
-21.156754604211745,15.496903959457276,-0.16091796969050046
-2.1694768998208867,-27.073925158680595,1.5014307192931597
29.794683733301785,6.49279817054183,-2.0613234813611205
6.515876023788355,20.124546295183677,-1.1693335533711897
-24.30646789204589,5.306683713248894,-1.3752997193118033
-5.114265739691791,19.914476262112316,6.099504267555207
7.278016905582601,17.260849563909172,-1.2662762725833743
-33.166807531245155,-35.25330053246438,4.467561383260612
-10.542204236939217,8.335120203613076,-1.4069596755625433
15.751954146793638,-10.954331839199863,-2.4860377402918132
-35.1290345512828,11.3739922686514,2.9516173564772745
12.829520873754737,5.40369818625839,-2.1523764773047764
-4.338026914675163,16.891874300984036,-1.178906819694084
-24.767729343149178,-15.045970087200233,-2.3165371460764552
18.89716215242154,-19.137914781600493,-2.482435231183888
-4.0333510903958505,2.804900640038257,-2.286789664340642
2.9870636457176905,-21.054486038296947,-2.490458532148975
-16.271204290873282,13.86786565109263,-1.1818312506241857
-25.638616164617858,1.7381050700527434,-1.7370929293933786
50.36284676167348,-13.61561810996507,-0.3201205673322079
-14.391227879836427,0.44444678889881223,-1.865593491851505
-10.908482114079728,-9.061370194155273,-2.5503837164098053
-12.916661957926843,-8.06529879326871,-2.5461434769790774
21.147136142085532,1.947740701866322,-2.2232785752448145
29.79621287843147,22.374038034964542,-1.601416480080683
2.2611270122561216,-17.47726913891637,-2.5037014599818113
-4.993444432990783,14.81914130946526,-1.2500344137824853
-18.248957622283122,16.343429784704192,-0.45099701809656684
-2.1793980262550336,-27.197735573343262,5.2534748230024055
-0.6460661462223024,21.185748293909217,6.571902758520837
10.50112222509874,15.502711110886505,-1.4967746361403977
7.491116167205438,-24.176788123650507,1.7109516967056717
-7.040705124709991,19.314844277872982,7.498406497563288
-13.721696665560955,12.595737029220912,-1.2590948365154195
15.240640331177504,-7.558322474619012,-2.4168947019917635
-26.69314997010121,4.468476225569341,0.49825484265668163
-14.997767517720337,17.17911800507036,2.670742617916328
-30.19336348841358,-0.5500034845622596,-2.041344612518498
-7.836317569722615,2.8599585085529333,-1.927076648461692
-19.06994686984166,-0.8158846600171439,-1.998271929036842
14.602168140278028,-4.140645341112873,-2.346694333452611
-10.269073690368941,18.398022591950312,7.104243791479357
-24.412929551201586,14.436063019098627,3.6749020795820613
-12.191125767344946,5.496543329781322,-1.4000221296970734
-28.597567397288678,13.318277540512122,0.9681459114977519
-7.400986059963962,-16.9677972701739,-2.6299609168934426
18.08709950173631,-2.8000837152869646,-2.371504509829101
9.559825700244701,3.4847764150060927,-2.219416272397398
39.12353636108247,26.4791279308732,-1.4498176578993767
49.46006593349917,-11.435954191157672,-2.1817702388826317
10.44254439317828,20.4228553044712,-1.2679869105512713
-13.129811902128031,-1.535100924975917,-2.2102903803707585
-37.29135770614516,10.574476684993426,8.454726776473922
-6.808184515366155,18.67696791729222,-1.0989096051698721
-12.293412306797206,-16.783268974483214,-0.6384588225340653
-38.60215982784107,-38.116549374633614,4.336513765222285
-2.671666282013382,20.65051207075978,5.080218634434709
6.708601787097838,4.5404363071470915,-2.0820186722795064
-7.845328955704928,-14.889728573596907,-2.602151753610379
32.30994048572362,30.37405962839342,-1.360927278139918
-8.590761472030918,-28.93785639681706,-0.5557215640519121
-17.1901447012745,-31.67657114217145,4.220814312944222
5.049703532194049,-17.03404415216795,-2.524137225161304
-3.7130397833875004,-3.9466236613048493,-2.3622779941497978
17.820580041537372,-17.610042491342917,-2.6228861678596087
10.968567638678465,-9.583305469114494,-2.4353609071234015
14.943666862582624,-19.900952985153864,-2.6054332779622635
8.969879573643613,30.21491026656076,-0.9672710327412587
-12.220595606409194,-15.072592010132965,-2.5142568136317958
-5.665139661974933,-1.9866610172774937,-2.3581794536620095
18.127687132002546,-4.662886122275472,-2.4253066489394346
-19.75682686772606,4.824246860192138,-1.3747571146930206
-43.02962008105333,-3.963210046722027,-1.8571499723690228
-21.02192978267998,1.6845208364092068,-1.6858082774529988
26.630870377884218,24.426616615364285,-1.5530803235169741
6.92987424695847,-3.436746956092161,-2.2947333221837445
19.529308741989183,26.66189283518168,-1.4203855487072543
10.75486023471346,-3.3369340687031306,-2.311798684566472
27.772042964227627,1.1881933382669385,-2.2220339126822304
17.54850529039934,-21.12567437236242,0.8428342606816973
-17.797510904944676,-6.987030272811536,-2.4774073647512695
-11.066777890144833,12.065442059949685,-1.308737064585167
-20.650941833390096,15.51935269615863,3.670023280667323
-3.0051462157129443,19.461574207215246,-1.088576686713806
43.341225891274966,-12.28999990554905,-2.490344206290336
-5.507840848628052,13.076777551434787,-1.3096741487022843
-12.942191072880528,15.975240569058576,-1.1365401043368468
-9.019610669907674,-2.6738430082706506,-2.417920776393339
0.9357586548236739,5.589902429400516,-1.9887868353952953
5.784158289124769,-7.1396967977012205,-2.3616549443227273
19.598714863183005,-0.3646078316104586,-2.2956732901998795
-9.391240207998512,11.305594368504703,-1.356559102688501
24.029144238255114,26.830771795161656,-1.5479740747037043
15.888955327294227,-21.70963422059604,3.485873177642104
-6.936306728967945,-28.406384481785206,-1.6164272615605673
-10.442315178816175,14.641363286590751,-1.2156554314222772
35.93880243310752,28.3921390014043,-1.4055912341648569
-1.2905788615609382,1.8095444964581688,-2.30599230951494
-26.771864474333565,13.68889800635149,5.789442737046689
-26.62819789384287,-34.542127330658005,5.107844398668129
16.47208266737211,-21.384735444593012,-1.1601137381594508
5.3187172997117305,0.09688596135921197,-2.1653058907439635
-9.281709904985572,-6.619775654017517,-2.486689654472215
19.607502590346428,-20.857180420346502,2.996926864347097
-4.3016223059695875,-7.926672367783774,-2.4363217452897095
4.181919604866454,-25.040942179191315,-2.3432786274632402
-1.146737889537011,-16.915417311550208,-2.4087007448254876
47.7118710255561,4.394465167022245,-2.0592350057908493
-12.494429869477603,17.981423053128022,0.1343549154774116
-22.566268551381526,14.88510316379433,6.245026556332595
15.599740558946,33.49642103925714,-1.133992364750531
-36.1178601245391,-0.21462128648259482,-0.6649360856163868
-6.079328423671774,4.452987732857923,-1.9368200354798557
9.836376496661577,-12.769988674909838,-2.492225138452159
8.290359612092267,-0.7668169911122071,-2.24913866443628
11.779652322386054,-13.163335979279319,-2.5096036891040723
16.07020901202155,10.310638563778372,-1.99890900822965
-11.055231351968176,-16.320737368806938,-1.8194608799119165
-22.43388546600742,-0.9598067126890211,-2.0725333980556413
-19.194480744669004,-4.679052085733738,-2.313761815171409
16.67263129158662,18.16303314916395,-1.6666292668433529
11.777958893914413,32.27173608981886,-1.054292940361047
-10.855118047578172,-29.743142085194204,3.3147257395626464
25.8122023302085,-7.662850704830097,-2.4852246616220195
0.057682906228236755,9.112979507850337,-1.638946968064001
0.8002717831095967,-26.24244694264478,3.4018748396141323
0.4319978215936459,-6.4091582137337815,-2.342996743429222
12.973176723924116,-1.1999542608617655,-2.3431063765965514
21.846960080083285,-9.211745007667165,-2.4821756906171095
-26.578078016866428,-6.478956791480393,-2.52498284887187
11.321774605570363,13.964007562033066,-1.6592794494589194
-4.510865532711039,-9.685920773119001,-2.4683152591112094
-26.681343181733343,2.798513903196816,-0.8233220106164982
-35.76954654793447,11.098295644289715,5.7905147692769985
1.374680391102269,-11.75772528506538,-2.430290754247711
-9.562589788676481,17.63744550965962,-1.1090710040616698
-30.096221234886226,-3.518766102693797,-2.422177294850768
3.5612652687724404,-9.769658419172949,-2.4021767551130857
7.742002548814772,-14.27951539362912,-2.5114129418617073
-8.522606789227522,18.922385416313816,6.434704738171686
-14.547758902604166,-17.499441649466394,-2.382415039793959
-25.31368522629363,-3.2749657277675768,-2.355916107743939
-20.255854139850232,-19.515952955236838,-0.5178281915790217
-8.843315597336616,19.007982324772087,0.901007360670129
13.8600118809011,10.14393459482979,-2.0114899495729204
-3.1829502626003747,20.613047847582514,1.6672656453480508
-13.395382464048817,3.270901356068732,-1.4435741652404046
12.908664018403915,-11.849419305592475,-2.4894510098328295
22.161606418276012,-1.7758449469583744,-2.3275503722245294
-7.998877735888256,-4.086049700923389,-2.4264433053715067
-29.339688319654996,-35.292595045098366,3.1024273604475243
-27.387639232091463,-1.171747088550366,-2.191277870353317
17.452607989058848,0.9613800276411826,-2.264802839263472
2.6724765758868543,-25.5752091732156,0.15778393087697135
-31.32848500614694,12.313096097835473,7.77616902966416
30.16499802050642,-11.009079453665313,-2.566857775542514
-7.778719009127323,-25.070628914399414,-1.1281553191857183
7.331020813978742,-10.27895990122656,-2.43091295718053
-19.630621040625527,15.916166315579588,0.4652579434334688
-3.7715230015090864,-0.39410457246650127,-2.3046160518061876
-20.036331378970804,-13.560752201758751,-1.3374313383103968
-3.0983412474531185,15.106708930697543,-1.2327158025969178
11.687775540400057,-15.969415648028264,-2.5641775952755537
-0.1682318471417459,-26.57794961829002,4.779978919817582
-14.685089256350642,-17.664635788864516,1.2698550192905718
0.6940195344750413,37.30553703571389,1.603590852130074
30.334112099219215,33.045742688893995,-1.3766373891890515
-16.060725158652033,-6.078802582253024,-2.43972513767337
-3.743199464915939,6.335753610388498,-1.8913680885839552
-36.81699806825017,10.929836826315485,1.6505708714890097
14.42450743346808,4.8604689595799835,-2.16251251394911
-25.00808597599653,-15.191982612530163,-0.1795449322100448
-17.965926862112326,7.836348592787191,-1.3249570394955972
-23.981811209913495,-13.38573128238623,-2.5349735873586536
4.814770133892186,-25.032541252756733,3.3029758451179276
31.852627567742257,-30.71293091902306,-2.9910602368777206
-40.81613875091947,-0.2425396238251314,-1.754222665351391
-25.37425348640576,-10.322682455592433,-2.528420948466631
16.848117763656045,2.813691013570614,-2.213282695290696
25.468140961709253,-3.9427508406568514,-2.378702007344392
12.652488350556277,-22.66813673138215,3.0402878464106378
1.027313665006087,15.153802374535706,-1.2141239949514584
15.80851044257051,-5.5506357929413355,-2.3803455708550705
-0.7089325319512467,-12.779579901111735,-2.4643809135530264
-5.878984954717431,-5.664238743459815,-2.4218322333713913
33.31088934025126,-27.692242796105386,-2.9282237352616654
-18.750468252059633,15.980929866420158,6.332091861902588
-2.405487275221603,-11.017973253978377,-2.4598601086964176
-14.322236543235407,9.196976461954518,-1.3605926148915046
-5.394746681968739,-27.989427696103032,-0.17490413681476827
9.294469632312886,-8.323955535755498,-2.40233763260874
-19.373410725735727,-10.503787494413139,-2.580910149316019
6.37714398220213,-12.114626005882272,-2.462168814056733
2.0118861162946264,1.2908251884639432,-2.1933794446385892
5.048398669414537,7.653525734745772,-1.7653301359964173
41.726527648624504,-3.8594960747430673,-2.316468090774528
-13.328390017294906,6.815026712485444,-1.3816935021885726
26.97310982253827,34.98954746049014,-1.3558316318450812
1.9247225858360946,4.268962091873611,-2.11021468790293
-10.767395385083148,-16.323698477932144,1.3218789717696016
12.62551932197101,-6.652327598040528,-2.3861211810285408
-22.265419332963567,15.082000053805853,2.815411562794843
-18.717170107839394,2.897625637000885,-1.5140101839385822
-5.075199113260668,-19.730617314091663,-2.3859433153369145
1.7866134835471954,-2.319455132597072,-2.256088869842053
-39.51617497552643,-22.056419963455298,-2.501673603102391
38.1581339107615,15.523384743901655,-1.7704694673079961
1.510060786745743,-18.936918383047193,-2.4614888572914224
-11.446106771227928,6.959386674800406,-1.4024112697172226
7.006898080594452,-23.636201712366226,5.061219132238056
-16.466952785563507,-8.158541566851019,-2.610864533003512
-0.16285270213108297,-0.4638132888333175,-2.253670362111438
-2.5833692050755586,-5.209118958526731,-2.36676234436399
13.255022939638108,-22.435502097262788,1.4405032873919943
3.5976121669968646,-25.357971615313048,2.0473287062790204
34.58927321135423,-24.054309281432708,-2.8479695789290607
40.16472920517049,-0.2542328012949503,-2.2203311691839027
-20.225148049256227,15.591374541945623,5.24275603787047
-1.1505609167861732,-26.65062890789493,-2.132345377299965
10.96169120614313,17.070385579188596,-1.3713479037087628
-4.845336295821762,-17.087291825086698,-2.523316097701102
24.65611065325566,7.3092477595854,-2.0557062495410516
11.984066763271978,-22.766066952816434,-0.15786482703062446
-7.9901866578823535,12.123583760545953,-1.3401713410547444
-13.538306588767869,-5.898873469593082,-2.46918126560259
1.1174986933125137,2.6503066815270473,-2.273197285021384
-17.153596195945827,-10.420515004678927,-2.6006066925607865
-13.264226757825277,-11.579976874102284,-2.501555903990756
35.332126723450266,-20.892896401833166,-2.774701595457894
-0.6495115760216291,21.29873054645361,3.0273317237093615
-28.95828672172549,1.9631537306031632,-1.6044742787616673
35.76260539895495,17.718560712827095,-1.7153033461005895
-10.826744154326954,18.32538821600575,4.369725332901574
-25.22650764833988,14.093296452245443,7.050009374818237
16.189104723286352,-0.10247302859267289,-2.3000431289728174
-36.66148880685623,10.883670899129738,4.478763315696271
8.991794104642722,6.926135523323182,-2.0412383365823823
2.1324214168862374,7.183030857072904,-1.8280810961044565
-8.271439236593235,-23.557505558742687,1.0730477508566194
