-10.884034661795905,-1.9755935129279574,-2.270992159224723
-10.44330976887418,10.538139234959447,-2.293876968817901
-10.895568337541162,-35.34205556981962,-2.499999999999998
9.26407903057753,-35.80434528117308,-2.499999999999998
5.223795552957279,4.142247329856776,-2.431666219512213
-1.1277065210999189,3.7789511419354067,-2.3309482413563236
-21.069636010825,13.47599696821193,2.3084725258689827
13.951541225601408,-1.2649837653257527,0.7743980883588072
-31.784266660477297,17.68151081933737,3.357062296634378
-8.79406575366221,21.505152144376474,-1.5705512388430387
0.12253501306557449,27.111426795419256,-2.16721775248716
14.59468324495378,-16.24974744596544,5.900367700417416
12.802975721990565,31.599787052485475,9.210485359589116
-10.10812170384552,-44.080611647292706,-2.4999999999999956
-9.855316392497105,-13.859985379142035,-2.4161475659593634
13.539239563715723,11.009337794151495,5.176810097148793
-8.061470714190914,-22.213275417602976,-2.473929233547975
-3.697323662119531,31.134739381269082,-2.119428984796247
-30.344998621633106,-6.280926021339408,-2.0947357139026237
-28.897693351765444,16.54330639875674,-1.840697957885692
9.714927959794,-11.365761401764065,-2.4999999999999973
2.5330078451089855,-26.96699987859503,-2.5000000000000004
13.024326239328635,24.104116853591275,4.236054096301444
2.983775538782295,14.653999113115113,-2.312184459281339
12.46440331906925,40.430900077912106,9.228396201240761
14.834852702297116,-23.662730601330214,2.5777843271075107
-38.63662738481617,-7.50393158355871,-1.691548968542942
12.054997989744786,49.75972391430208,5.360073593930645
12.388797544773176,40.185656930075154,2.842623064940774
-1.0468760947164184,52.27397025442064,-1.6045703554938513
-29.870440569286703,0.8683793826199854,-2.020030200235212
13.93295326976979,2.1772752890574076,9.298034616195034
14.26669926242297,-6.612799343535472,9.035857665315792
-44.674997143306825,22.74115706367879,4.626978876152831
12.05343961682263,47.21364739148536,-2.094225033087878
-17.352014709423145,12.020518770287566,5.425364859862587
15.00912460973706,-26.77627730963528,6.695435527306886
-11.528017578507756,15.29449229199196,9.788289311762876
13.21460291170634,20.660948057053773,8.605983884798368
11.481500192563661,-29.091013072085172,-2.5
-6.560016737036914,38.84784911428382,-2.177893010386215
-5.863436381567387,-30.720221386431803,-2.5
7.842677696807039,32.37242156937388,-2.251607966958786
-27.810273076058458,-11.772791227322035,9.771456292200636
-1.047112823412605,52.28579089765176,9.405168116010769
-19.4690398402241,-13.938678407398468,-2.210051327600572
-9.185840706231302,20.296742516812483,9.712319958866466
16.602755219431966,-42.06688681971623,-2.4999999999999956
-22.786508146412952,0.6624386349558239,-2.104074671176131
14.640739624827514,-18.936213431818352,1.6180208543512247
-11.143837244180114,16.401249312153045,1.0961330778120582
-20.486117124827892,-3.718496068278255,-2.179749829641898
-2.9661322234060727,15.272173555117575,-2.2102710238841525
13.002865431642878,16.507262677205293,-2.4609584923133183
-15.05201024097919,-5.102268053997068,-2.2579681523693407
-39.45602994930551,20.698043545065953,9.147184783169628
-39.02505492172164,16.371737586813513,-1.8188276854507568
15.222414709818093,-33.63496513059789,2.9512016945253583
13.515371040511575,13.068938724499846,9.319280789634337
-46.54453458140167,-4.3719238985578555,2.584284690717173
-4.433966266847074,20.171379023464947,-2.162171847648946
-13.681464596155042,-17.368750840719972,2.0407527515517985
13.605090541937688,8.071221893874627,1.6561095280153861
-4.204566281320796,-10.37754050486793,-2.442289866358504
-4.370271615890932,53.58126701404716,2.3104571584950517
-8.391843273170492,29.434605312047836,-2.0690007085759863
15.099935908742767,-32.30306917204176,-2.410406814429496
-29.892899862743825,-10.95798649922918,1.7599932196242374
-46.04278156237199,0.20809870623533425,-1.978842008258663
-12.637888690950511,-17.773244967878384,9.507305110657676
-25.96055125047327,-7.401386057991799,-2.157889907646188
14.271884276431571,-10.685071760102725,-2.3100870640846805
-18.52514471401498,-15.445071263932032,9.474184789318265
0.3505872916509322,-45.223351668470166,-2.4999999999999956
-0.5315507719460164,-12.852197054092668,-2.4766951062050224
-6.377411835664077,-26.32420615087679,-2.5000000000000004
11.167873382826837,-24.676179106593384,-2.5000000000000004
14.512982618134155,-16.979137503471478,-2.338419793492988
2.9625460358489435,55.21117900776595,3.7375251907821365
-35.51510126673756,-8.725674290953135,9.879463660256423
-11.131027826071184,-18.382076788158162,-2.249754879387798
-44.30734866116364,-5.261602051798609,-1.9176164275406729
8.47819036297825,27.50078432416188,-2.300415231420355
-24.42036787219483,14.787436557952242,-0.8761350254481598
-53.260338102083445,-1.7206882076080239,-1.6353723572089822
-2.6830166564021996,-19.106789829604658,-2.499999999999999
-39.37160069415434,20.65375321981423,-1.3644468916321808
9.529496552347968,20.559290305330542,-2.3723371244631486
4.388934251727038,19.13974840867601,-2.2997030168270447
-17.60966083446818,-15.81608715980029,1.308442575985
-33.379615619102125,8.086684722763781,-1.898586306178889
13.803158599985549,1.467619976906755,-2.4964068247580578
-11.126856052857555,-18.37518741039773,5.521129618152691
-41.51722875002847,7.397368522367455,-1.812424907674435
2.930538252012248,-5.228080047484425,-2.439572693049956
-46.52879447951312,-4.370445432219515,9.594358863837998
-7.228247941803777,-19.917341141655935,5.169459054329557
-1.1135999739821545,-3.6121945128296806,-2.36126096120671
-10.49419089649442,2.271240833171482,-2.3419994072375223
14.878675948861808,-26.543556907274148,-2.4324061157439583
-28.4361800113462,10.319839288683598,-2.0448936426026387
12.63833836030249,33.53560933764697,2.422573529522195
14.427499230407173,-12.251471057020119,4.864715011205036
13.298881252836917,16.056201505576844,1.6665621021029875
-23.43322832271424,-13.51577909088821,-1.1626235141877024
-1.621907729137396,23.430634933690378,-2.1678138615309277
-12.1946221486741,14.26682383030623,-2.1980294523265775
15.410962088891479,-36.40454126649338,9.132386485279898
12.72618434437388,30.335206654128125,-0.2018530055171535
-44.28970993275071,-5.259507411238681,6.3364808840324764
-24.457634805849406,14.81000306554994,6.605128768006948
-9.3939216592001,20.096277427123724,2.3224018981804284
5.9693897254671695,-18.347598815013985,-2.499999999999999
9.979365104676278,-4.186529579637451,-2.5000000000000004
-53.24011190158344,-1.7200347572934886,6.238394498275361
6.116297463147364,-2.83498285799707,-2.4588683680247927
-12.625278038152684,13.056554994429042,6.624584342612802
-3.790619572824996,6.762465066846519,-2.4037081588069826
-50.355505071603304,-2.8652721133079053,2.167674223137824
-20.491859350097442,-14.670956544067655,6.148742762133916
-17.366490133697774,12.030546545858003,9.520260057634445
15.128790661042306,-30.397059469091694,5.24969145806768
-11.295516714610645,-6.150632766657952,-2.3130684156703407
3.334784548028072,-9.097143947479845,-2.4902751295951693
13.176688400269612,20.05514213692632,4.012279731687537
12.09961246999088,49.94388024692979,9.241934549776165
14.107565821456907,-5.1198090592291345,1.3852198022179172
4.218638308185576,27.58033135536023,-2.23031971289452
-38.62942153770191,-7.502532077768297,2.1753174780905176
9.042205222555635,3.568733778597532,-2.498465243921422
-25.304486969118578,3.5533106620905515,-2.042600344596865
10.471086508590114,13.634069940808258,-2.4423412692318354
-34.13083770305659,-9.279407986816013,4.142282669526869
-21.051141457836422,13.464167976962415,-1.9975108258371659
-0.25330851789907893,12.648528318372502,-2.275217285845037
-28.94142056822536,16.56833928740482,5.575933622505079
-31.021564847986316,-10.515561494766978,-1.810701134025179
-17.33787610992473,12.0107243283451,1.4257526833349512
-13.858206927946695,10.643225700503502,-0.5362528696583405
-17.48139834365937,7.333772288265149,-2.220170947765944
13.687387470715379,7.236715790510672,5.432876110769002
14.708599058085614,-18.088576262947953,9.15790668841055
-35.20887359208859,19.02462799064641,2.7052660875991257
-17.05572883479412,3.2553535245110257,-2.2498438045279165
13.147309964253154,9.412694566246305,-2.5000000000000004
12.295804460174205,43.66265522285902,5.877520322176262
-7.646491029698204,-17.041884542620846,-2.420244909600979
-3.844037104296129,-6.3481455919279,-2.401259145293191
-8.004467770061687,-10.691443190424431,-2.4019668800918073
-8.73785119294341,21.36768413869507,6.236303669707917
4.611540529039009,11.382017889110099,-2.364550936573015
-1.1192738006951681,-27.06256523972931,-2.5000000000000004
12.40386627301318,38.54778764580102,-0.7454938290522524
2.1769754370635845,24.009922806790264,-2.225197492518324
-7.478827590141888,-3.3847460426472415,-2.3260855727185716
-15.609901801580596,-12.377987117110377,-2.333129915689999
-50.33718928930743,-2.864229929336736,9.707668401996422
-1.0747108911031031,-36.96781434976637,-2.499999999999998
-31.810930983193447,17.696344117699486,7.47326473138788
-4.541087997569299,2.526196291337649,-2.418835145342332
12.906379798826121,26.14326736893053,1.2530433874554097
10.393961091088356,-7.781748925290705,-2.499999999999999
-25.946954360063966,-12.519047550270603,1.2381594877177065
1.699412975451527,41.08956583173386,-2.2733530562971094
12.362098959900788,22.87853301657373,-2.40023169926809
11.161595106845715,-21.110830028583635,-2.4999999999999964
6.13920209925064,-26.38077725883156,-2.5000000000000004
-1.1280460246049746,0.2153052876003222,-2.316786261564603
-7.420399203016331,8.681329104689752,-2.3446163598621705
-23.822714751086036,-13.353540154463762,6.30894403126864
13.654451951641638,-2.6061664509677134,-2.4999999999999982
15.35667456139837,-37.553462997137444,1.7437006365866867
-10.281501395505405,18.342197808582096,-1.9408077842694693
0.7710876593732737,-23.867420758147983,-2.4999999999999964
5.303732775385727,0.6298307638890936,-2.406820625426235
2.14747384098923,2.4668876598840495,-2.394715912623362
12.721993029342071,32.541741236792426,5.842078209341505
13.380771215309451,16.56472414060225,9.283079041522681
-10.737414966725773,7.054727923390364,-2.310566081424805
5.029521977947449,7.863625795832903,-2.399131872439873
13.934569689512275,0.2790637066040904,3.949213671744808
-7.698477053530671,0.12928110495064363,-2.2841406784464713
-31.761075320273132,17.668609532763256,-0.22301179824512896
12.887555686256736,28.722748145361013,7.272600394743727
-25.48935545663109,7.178036445812106,-2.116783455562999
2.5424353083457047,-31.171267393786653,-2.5
1.4910297175902414,51.28831413747423,7.289643950661091
14.309234893752329,-10.441487961954236,1.1974148477437607
13.750436498448142,3.7384347661200032,0.08743539675365124
-30.29364946586615,-2.845479738179095,-2.0567989177988606
-21.97086163690084,7.973495773210452,-2.157315655755133
-7.529811690775011,24.14698657331816,0.15520260385963147
-14.12288229448352,1.4554613241858925,-2.1951421428735935
12.728909493747702,-34.72389903795695,-2.499999999999998
0.3237557766990545,-16.16619189823772,-2.5000000000000004
-22.80045512402893,-6.198931512366793,-2.1808654851814464
14.708139225118279,-19.513634540903887,5.016656325064487
-41.280027211642235,-6.450748914412373,5.413661456816984
6.468295998868103,-10.317429417224865,-2.499999999999999
-38.61559074845161,-7.499845888436938,9.597319920602933
-11.694156150588407,15.125126356118942,4.170178118040474
8.622341512598387,-44.39515372672239,-2.4999999999999956
12.673570030991208,34.92185379115919,9.063814893300146
-1.6973284072511803,52.53728388487985,6.156040831537349
14.174004843106054,-5.341661376244716,5.736375145523976
7.204609443185711,-14.475640955230693,-2.5000000000000004
13.41209290050857,-13.870247294094767,-2.499999999999999
14.336722338759971,-9.169670832090501,6.927203304564574
-27.171711283270554,13.414100871825521,-2.0483817208603865
15.223449927357422,-34.76684894849899,-0.23288422199945058
-7.949921448681048,12.680735920805429,-2.314043177610003
9.052753394421481,41.827938663505975,-2.3657621983872397
14.957210114870449,-24.521482679945223,9.293773492126698
15.269557748469664,-33.73913089479648,6.192110130958517
2.4241346966932946,5.778371976368794,-2.373096439331223
9.741224314477838,7.15656811356981,-2.4815531662963095
-29.887762723458,-10.956103352957081,5.322488756629667
1.5184714424674661,52.232252269205034,0.32063251422838807
-0.24391302724323002,31.46310453981025,-2.1269016690356817
-1.5567376481420527,9.218865086747293,-2.2810240617025186
5.710030422082144,-36.53997610668546,-2.499999999999998
-7.823138770973234,-36.14654618450209,-2.499999999999998
13.819966169564118,4.309512597513298,6.9557947482686115
-21.679334142421617,-11.12393344751815,-2.2490359916292273
-15.572712156705327,-16.612524504029388,9.595863296176153
12.426089282993875,40.306620485500716,5.992337254800528
-36.120552664692326,-5.644487943167453,-2.0209592648517742
-7.293462656477906,24.44043598105465,6.55536729589543
8.932097753870558,23.70116484460918,-2.3378012835727833
-25.900570488153427,0.4349502308414156,-2.0706957799914543
14.998347538751394,-27.54417175317065,3.67302286715766
-35.43180020302942,0.5950088892630138,-1.9589288359336063
-18.119048343222783,-5.895030848765286,-2.2314715027408205
13.410089445649977,13.958186201827218,3.973801952422063
0.07173977981332999,15.8727513065,-2.255075542490871
14.049016748235948,-2.860591992244097,3.4979540372887707
14.573033262308003,-14.705362283862685,8.7247406418916
-7.472170394814347,-19.8272731842596,-0.6502601974492791
-18.21824476339194,-15.572114280243186,4.310237519463468
6.097156172119763,14.047915542152491,-2.3677423847041337
12.230182146131433,43.4296290323193,0.276849230449371
4.326730973002141,-20.903708301268765,-2.4999999999999973
13.60819243683369,10.256991773808242,8.188021893906472
-10.381099987715901,47.226589001906554,-2.078156933877093
12.492521548319491,37.24932216653327,2.1718413325969332
-13.874392409904424,10.655656294045883,5.189758594379151
14.14860766227026,-3.4277006283254794,9.344318998095378
-5.274153852660865,-20.659002592126086,-2.4970506835035127
14.551868631619056,-16.20207757591695,2.821774657936103
-9.216818595456514,-25.396821150085685,-2.4937101138297155
-21.083167133364174,13.484651382850167,5.458848121296411
-14.292728652221648,-2.0541502716610736,-2.232543491610882
15.111186316668977,-28.581012194735518,9.16081918129865
-31.872941351032583,15.251436340080284,-1.953245661530871
12.018607678468394,49.60951469454036,2.1937892903661202
-7.24500339362559,19.037772559343743,-2.132523196373273
14.89047451160465,-25.816631562084666,0.5486705442242104
10.823591968164003,32.27302531853371,-2.3010071857845182
-13.639038203753772,8.25894242072975,-2.265274465246532
-28.9169888309519,16.554352644573203,1.4320340355682866
6.524587274873537,21.163863957807735,-2.318560141959455
-16.92782753275903,-9.763604667294322,-2.288602757389166
-12.704912959595465,-13.224187764501947,-2.3761381579060643
-3.690285608694179,53.31113067964173,-0.9837984260039129
13.086962154764487,23.52511044744522,7.272302720141596
-0.620321870063104,-21.337779229216665,-2.4999999999999973
-41.29336398011583,-6.452833025072276,-1.282641919046618
14.73091407084587,-21.680628402754646,0.4825521223521237
13.002523754721377,23.37332406161109,0.4923999311546829
-46.55098139579663,-4.372529447247436,-0.28689412432736505
-0.375746640350257,6.603530521906159,-2.3209225272473613
-15.457365997567807,11.279282378514477,7.516429620175791
-20.825406222969377,10.60086992982413,-2.1568823915508055
-6.478076956961487,-13.122045109640718,-2.44683818196539
8.56231186311511,-19.55434573735534,-2.4999999999999973
14.194317687632667,-7.896264666035863,-0.09966603083999044
13.94508408471645,0.9653020383135726,6.7165804606982125
11.94267084848159,52.08091583454939,3.6119321686613297
-3.691088757821652,53.32273324720157,9.612718324160518
12.233139927966146,19.653680842801876,-2.4235763706395734
-34.81147642193467,-9.00718240234005,6.923376880161842
-10.324221391823231,17.899806996101606,8.708152131125821
-23.01002310485887,-2.1613293767620583,-2.1331649060378988
-30.43515666217143,-10.734955743825227,9.57402081626059
10.59169951208563,-14.052257072257003,-2.4999999999999996
-39.43337334524652,20.686158229234668,6.326386750031206
-26.539213537491335,15.628631444804794,8.320144900673078
14.874758770842156,-23.726383848739488,5.391844938428942
-5.130073653923437,17.19090679177603,-2.324531819419136
-1.697170056553256,52.5323824671373,1.6130202925190502
12.923194581979661,27.007306970620157,5.006041021298986
-25.495950848745487,-12.68948081925835,8.44860516056822
-10.496697526773984,-9.427591169079506,-2.3590370253073587
-20.49868229755258,-0.914185187763386,-2.148153905151881
-6.837962351152362,-44.70477288236026,-2.4999999999999956
-12.792154922871022,-43.377819447368,-2.4999999999999956
14.035006283985865,-0.5804702801490502,9.01639410007299
-12.378753294602296,13.782526921421855,0.5685314804958375
-5.550150227552715,14.062578070272263,-2.3374674669750415
-24.231873948065317,-13.194735722865351,3.575079695977033
3.686915811578279,-23.59353728509663,-2.4999999999999964
-11.440315745561989,15.572084292003302,7.047846932658222
-7.507832605469896,36.272544731525606,-2.047630376206552
1.669090185258071,21.313822955913192,-2.2381898964067286
13.514188975738916,10.716176127575222,2.4503371257550395
14.989290524068178,-29.21249388646868,-1.8150282470060537
3.08279202936005,-15.872837540821337,-2.5000000000000004
-13.420812966157206,-17.47481529189765,-0.67620002326073
1.1331451309385294,-10.657378752851145,-2.4758576567171446
-35.53550040856154,-8.73068613833699,-2.0228047315284665
-17.6121316271414,-15.818306298069949,-1.6002365106860106
-4.439768899905084,22.859709573601553,-2.1493684298847566
8.943232713668303,-29.96882508309665,-2.5
12.158499686801132,47.62517051323119,6.983154524007526
13.296587438424172,13.840045144113928,-2.4867961616779253
-4.667618194542381,-3.795441033155175,-2.363127493361938
11.75081158683029,3.1947816762973282,-2.499999999999999
7.241400655583455,6.189614862588917,-2.4484146501770945
13.469182698713757,13.347977676133803,6.654030046016775
-2.4910324947961198,26.52012038354077,-2.12925993130881
2.230867445100068,17.438293153555264,-2.277934187551804
10.625555521391936,10.274578005043509,-2.471370750455695
-3.766479446196623,-26.822543573958573,-2.5000000000000004
8.69540850970989,-25.651999572056614,-2.5000000000000004
13.862150579514271,1.3020705427399952,1.4576258200008925
-12.16878278207726,-15.844586462850618,-2.339724042884811
-25.517942934420432,-10.071298169966978,-2.1929403825838794
-15.858366363020627,-16.50652901675008,3.2520014504382844
10.440165835931877,17.72860224295081,-2.4095263804066223
-5.337362310856865,-23.27575806257565,-2.4999999999999964
2.214677313690729,53.54797838516229,5.610766463922189
12.563481800175422,37.460906454955456,8.111674158871729
11.875433614867543,51.787700292630106,-2.2834943597330644
-1.5923029426949988,-10.410051672936993,-2.432814440793407
-20.158117002195123,-14.80952832110736,0.15348242634356918
-44.29563095136681,-5.2602105461506214,3.5657219780160476
-36.263095805207584,-8.438965679759427,1.600156672979581
14.623123796533708,-19.400842570529793,-1.0441315041080013
-15.443768672105378,11.269360372817811,3.196622382544894
-19.67318825339827,12.92573593769617,0.14443849631301167
-6.46004440311632,54.39929453380654,1.0085195856876954
-22.969983239410585,4.677035503206267,-2.1636236251261303
12.088090261966945,47.34937490112069,0.8996532114013384
-8.037750725578963,22.78818920005238,8.479190112024312
-10.630212457386758,-18.568755994313527,8.102983246174176
-20.913828597516567,2.4150342295973477,-2.2040323621106435
-46.538045632483005,-4.371314392176298,5.474228704262143
14.743809635801561,-21.13688349788245,3.0181422450786166
-13.417264968997285,-17.4701955572227,4.8047584264506655
-2.4361084530073938,18.5656285105053,-2.1929258455339293
12.166962737807212,-0.5032103389249271,-2.499999999999999
-12.597828045820046,13.028167315884088,9.262094996369287
-29.357207281405437,3.390037368786581,-1.9976709799793786
-32.2057018589054,-10.042779857042717,2.2804274366325203
11.996881030527474,-17.656739993459688,-2.4999999999999973
-40.35382175200256,-6.814321825586121,7.879779578369869
-16.797739196949962,-3.262424653087371,-2.2171915982015116
13.246817998461294,19.122218030266662,6.591492699311848
15.14444430071281,-32.39828531555613,0.6583942346307778
-24.444956595873556,14.802325940181992,4.0600029967986915
11.982626348403757,49.46099363699983,-0.9369099702070579
-5.754985753648317,54.126396715920514,4.351068613312794
13.597247845889738,7.403970995777628,-0.8558581577702328
13.204496360029228,18.57009143088178,1.8214448148821525
14.530735682718817,-16.58347565484457,0.13529204734475908
-17.90837162874102,-15.69163304853512,7.063569905090415
-44.69774177396266,22.75273488687239,7.125627048674022
2.1136358929164056,11.86263799013717,-2.3200206832421855
-51.758451425867335,-2.3082854277295652,4.141507696238261
13.703250837279729,5.603647353570429,1.9182825092764662
-35.226692484751844,19.034256182904176,5.188109030741738
-15.90097870476106,-7.432846645296013,-2.274310645408485
-4.215480506039595,39.647147705532205,-2.2040286558844495
-11.377378375702811,-18.278820052787164,3.0588446781990135
-44.652480670996155,22.729695381170014,2.1533954075035022
-26.495275574569334,15.602756894001946,0.18867034613288605
12.123019856870473,47.48619506447066,3.9176332182659266
-28.82173497041552,-11.375222815130563,7.55966586560229
-26.52416897252792,15.619771877028663,5.535889804429719
-8.437488392706731,22.171278088535104,1.311367998587114
-15.579818375967157,-16.620105215753217,0.1397821559729359
-18.539943868441263,-11.623228993771376,-2.2908581554714345
-24.432597521822462,14.794842063427879,1.578943136168496
5.343289336959413,32.27765614470183,-2.2115939756761644
0.4486851290094121,-5.501058015540391,-2.4061378355576215
13.076681818226962,22.205709588930073,2.697879132487173
-11.378839695267857,-18.281167799033007,0.3964231229640581
-7.973562329191973,2.5657244394830023,-2.3734318247723
-46.38492160779538,-2.639342454649273,-1.9967508769599818
-32.81656151891973,-9.793048132929519,9.703929268134075
7.512008770384154,1.6512501919376075,-2.4886408845986616
14.802851464009546,-24.2684205811637,-1.5714174294236385
-10.502016843510585,17.70251046342198,3.1824361158557326
-44.30149565799869,-5.260906993881753,0.8213144385279533
13.510522889437368,9.925752060190124,-0.10286813168191096
-11.1101908532687,4.660932048756394,-2.3197889053991965
-2.0791839588119903,-14.806665781709127,-2.4999999999999973
-3.3307515453405294,12.872880075995944,-2.2232577635198174
-12.70296821274424,11.907863098402796,-2.2560565067180596
-24.47084165365312,14.818000300687842,9.256377545684288
-22.328543681674862,-8.812521514653477,-2.2156223966829423
-5.387077943304353,-18.267422164795725,-2.4677292174366805
-51.76799906886434,-2.308711226504297,0.31796418159828715
-9.656736199601067,-4.370417587854564,-2.3120112609437298
-1.4451351158697698,20.876917176915754,-2.190848592148222
-9.70633767507643,14.66965868458156,-2.2791906162404953
6.822274627593741,18.79868706965516,-2.3420790297238616
3.7271215544693552,-2.935875012582372,-2.424809889303636
4.53469954894106,-7.039735990219697,-2.484174137575269
-3.0187848776654755,53.05340337880439,4.247769213790198
-27.819644837929374,-11.776758530902145,2.788341930873132
13.190063161469231,18.075940203982952,-0.6867244931905278
14.019469708649448,-3.3964151297568024,-0.26556241557637733
-5.41138383721996,-8.236217531765538,-2.404350143584547
1.2975085944185965,-3.2875355004410896,-2.3930551382904217
7.6064601379471775,12.220488016567897,-2.4067777100502874
1.6392515042133509,-13.803949296334512,-2.4999999999999982
-10.124112660861663,18.592734783530585,0.6497047576240176
12.814861546110604,28.56073328933308,1.3453770818475859
-37.085298750912024,17.7455876074666,-1.76692219971308
-9.16471768066124,-19.15272126644498,4.088133298108272
-12.96191825565464,-4.041945495764054,-2.270192004020261
9.038625786246806,-22.103203245708645,-2.4999999999999964
-38.716177623232475,14.050576792820506,-1.7701264344301244
-12.896503466353483,-17.673639818438723,7.079147384742363
14.514388825669432,-13.944451634818426,6.5125158583296425
-18.466652868885188,12.460115332119699,7.511297238760703
13.315305422616381,14.922034677497239,-0.3681806278877966
13.84430006557959,4.5042418575300776,9.344773315525224
-20.489537980892468,-14.669294581326888,8.496601339396452
-23.43060038777023,-13.514263354870991,1.162493131002015
14.368446181691244,-9.189961187886976,9.251628544653137
-5.909452335899992,30.42689094484245,-2.095224669467927
-15.349871752851195,11.200843533214796,-2.2253971859996984
-44.283686267892,-5.258792086843572,9.155273415564112
13.138293399690683,21.69692879329626,5.8595612244453195
-12.418919271599915,-0.24871020212113099,-2.2339152102949056
-28.32110977821456,-11.581303863103923,0.18774675132942803
-18.451348427779642,12.44978887487687,3.4414772527109165
15.304214300658854,-33.815706914215944,8.574619098990274
8.42482489675304,-2.4844878477141856,-2.4888513523529867
8.356840132366017,-8.857280954698618,-2.499999999999999
-3.587629466701768,-31.06832475434945,-2.5
-8.107468826657804,-30.20564247714062,-2.5
-8.920949369898787,-19.24638797940641,6.577411413310802
-36.25826839751922,-8.437842269667163,4.359803362991987
-3.666190193778933,-13.018716988455452,-2.4324046915718345
-26.152794703740003,-5.079345570748378,-2.12962961098568
-22.27744642100623,-13.966377837237639,4.7287135846581165
-2.8148639636712978,-8.393163400375466,-2.3914658491483562
-11.285488983137656,16.17899794867014,-1.333447168105198
-6.5876489269747145,22.075250049081625,-2.1263272669476896
13.600422710975016,8.998866176433294,3.9787618428851355
-3.3841385655369858,4.489816297828552,-2.2885391938120567
1.8956119042844277,-7.3262698770252745,-2.448577829421552
11.642730636175763,-5.747770596742357,-2.499999999999999
15.133089990434977,-31.364813795285112,2.7837711043557825
-51.74879410408639,-2.3078547375809277,8.008974261119365
-18.31458633262702,1.208292989658519,-2.149550077240205
13.831273431695761,-8.375347965980868,-2.5000000000000004
-49.016209975067675,-3.3929840158651894,3.9275658407389824
-23.258492378490423,12.567404747179735,-2.1132572539473244
-45.688333096533846,2.4515649281940406,-1.966413126661555
-40.367697726086156,-6.816664982911596,0.7536844498805746
-7.34521755018881,24.61386693230854,-2.05328928178365
-7.470946714374358,-19.8240261696585,2.7449977778887202
11.931560059359148,-10.912765590971816,-2.5000000000000004
12.97926793206002,26.29091016147638,7.15342106701357
7.547140260800271,-4.570072751755014,-2.500029042805919
14.739672075023286,-19.555469915159026,7.264647261595503
4.077805277346184,21.36478896311445,-2.277070751884423
14.467244541070913,-13.89915856706765,3.1018554217803254
13.394250472428169,13.60354687134798,1.7620827924476217
14.167987181822332,-5.943734576143416,3.549320781735727
2.2196320521785684,53.66777743119523,2.308499931569889
13.27793054448584,17.28877261821891,3.6448793448059154
12.519832385123847,35.86470350628331,0.23308912571231818
-10.141288366278577,-11.649696796573828,-2.3880591460146343
-29.128258519400955,8.202784947271141,-2.0455926194982115
12.713723764012405,31.379498978262,1.871610962342357
-9.37676400526406,20.059572312262617,4.545923752173752
-2.288032390803215,-1.7245735992939786,-2.32211682634047
14.33964779534892,-10.463680339692583,3.417889115567342
-39.4761864756727,-7.16544005415772,4.200318206761316
13.991938234835873,-43.00581486278023,-2.4999999999999956
-1.868839697758554,-45.18608066388666,-2.4999999999999956
2.569169685567011,-45.15167565778655,-2.4999999999999956
-22.632806596236282,14.08745223191903,0.49078745794325623
6.040655009108824,-12.519850188032136,-2.4999999999999982
-8.924736881285641,-19.25455929734638,-2.221784174351027
-33.47745541365103,-9.544464960123747,-1.924359847028865
14.352601434468449,-12.187869724278823,-0.5778560211828332
-19.492147709591514,-15.070566265655136,2.274143182383608
-19.684541095871644,7.143761943405497,-2.192299908525078
-26.17955244110437,15.416831245355565,-2.0537371055489935
-6.166369974921283,6.865647788930305,-2.3718352171643993
5.129546566039494,-4.808477612657492,-2.4671417968219886
15.330403460377738,-36.21424166681982,3.629726012774015
12.737940561635623,29.34835653530655,-2.1626883008571673
14.421072455484321,-11.359561435801956,6.9522668153733935
10.648964047487238,27.239115103583487,-2.3378826242673325
13.235008120572152,11.596749002522268,-2.4999999999999996
-39.389137046226104,20.662952527987642,0.8188682823362855
-1.7122361398308774,-5.8061421685919195,-2.3778059699186382
5.1909244686308735,-15.313552215425467,-2.5000000000000004
-37.01149949638312,-8.135672829383022,8.265720513800806
-3.2804936376485814,0.7522497465181924,-2.2788419988721973
-32.201799532201534,-10.041562985316434,4.792203917366728
12.638253002189247,32.327541599323354,-1.0652286826713504
10.63006413336624,-2.028914570436753,-2.5000000000000004
-25.507420922605053,-12.695189540737298,-0.8743992048039338
6.9283498873585785,-0.8000544737458891,-2.44730881690611
-33.71516042440346,10.394014397084094,-1.9503154326087233
-18.53284842660919,-1.9705039526174115,-2.1826826453970516
-9.503224014500177,19.696364183261725,7.373714349630622
13.867572351077133,0.4480213431411983,-0.5963100139819608
5.2975895328580265,17.183840058279642,-2.329956399672252
0.17696589033858406,10.538027552822497,-2.2988888072573386
12.145216228566223,45.248901605566545,-0.8625106290699136
-8.358415114029857,6.751820278689643,-2.34366057990171
10.103866550038143,1.706182843792679,-2.4999999999999987
-0.1105524050530858,-1.6756875889816307,-2.3536555372253294
12.322732567534443,43.75827748745199,8.175754918857658
0.9684854662525753,0.6408088402719013,-2.342776240095806
-12.49026061319687,3.0259425643677993,-2.3112775884871044
-7.824794777110806,-14.916160380117212,-2.393033904655514
14.809863100102598,-20.68587898341341,9.279365172917291
-34.07284504012218,6.070958947786972,-1.9131945831123474
-54.83107799716754,-1.0980865720240884,-0.33651096507676287
-15.436291833539583,11.263904503202287,0.8212654463319666
15.119351001354229,-29.465967584339126,7.2238489392484055
-18.268701949708703,5.144634144861172,-2.2227308396030327
-37.81440606252084,-7.826973069962839,0.23694741322885846
13.715700622316986,3.9103636275734166,-2.0262455690249785
12.93105835786705,24.650070173702215,-1.1963290622365568
13.177072165017169,-19.91514797792978,-2.4999999999999964
12.347209952378895,41.86902419665423,4.569923277182488
6.331796127756656,27.612394697551853,-2.264529574430087
-8.755853357186092,-1.7005450267074307,-2.2924625043528963
-21.55258711649214,-14.260501407851399,-2.0658254812420367
0.9730831672727861,4.243528367960851,-2.3615433580463474
-31.604909519587878,-10.282654643950657,0.203933479286313
-20.1253421868878,-6.547778381420166,-2.2156434774904112
-42.173632348527136,5.395240383877069,-1.8273055825667464
-10.329021947722028,0.173456043471421,-2.2532938755862006
-9.64247866185725,-7.455187381284765,-2.3467721187797905
-5.608859662660187,0.7175371072949609,-2.301653381678948
-30.19655396807772,-8.609075800524574,-2.1225591746234005
-12.935610452901635,-7.460980231978211,-2.3088407513644533
2.208673267980807,53.40280847354088,9.61238214056168
-8.591051071955345,21.767397539136386,3.618154746177263
-16.460380027253617,9.423212673623176,-2.2212750758164597
1.4741332503237794,-21.295834165807136,-2.4999999999999973
13.6688809918479,8.337518888995845,7.215061667784539
13.135890915339017,22.945651759326417,9.277651789024183
13.863253289344831,2.6924944346894817,5.547356262957123
-40.795292401293146,9.35476539744344,-1.7988020239483586
8.586924529555482,14.581585375855136,-2.404136020915714
14.194749389410598,-7.225630576061651,1.8653835119868436
14.254958704676929,-7.03737250829597,6.930451746446232
8.895908327949956,-6.162594651144967,-2.5000000000000004
12.364289512299527,40.106159998959946,0.7726391668735146
-54.809589785559474,-1.09765623365604,7.788396853255079
12.212712535325453,45.50036964745319,4.932068571655079
-13.39652746177296,11.375995648405558,7.661777247916076
-5.345579608098137,8.763769230193919,-2.3714336060492194
6.3548182907249275,-20.37895743528448,-2.4999999999999973
-2.7088029517388423,-21.174229814232195,-2.4999999999999973
-0.3239640785352099,-19.29152775824233,-2.499999999999999
-54.816804119915474,-1.0978007131003948,5.060584847201232
15.438828921386321,-37.75436461197118,7.335669806628061
-5.7441709262641565,-5.554432625888037,-2.370433636070673
0.8654432292958618,51.53572012252925,9.269693721753452
-6.369143369328469,11.362551349019114,-2.3426256494766284
-28.929120971265707,16.56129803332935,3.489782556367279
-9.258526672148436,20.45734712361838,0.13778338381522834
-18.772620374174572,9.26764680746138,-2.191765060272955
-10.003604860871727,12.615564070523625,-2.2874021563439917
0.8652503896839007,51.52423684097575,-1.5814628727063575
3.2518523857804786,0.7148050595124885,-2.375585734681311
3.9107052148687935,-18.89376565678779,-2.499999999999999
-47.73865725063563,-3.8937283567501937,8.008526527122585
-9.507067228298027,8.695291781115081,-2.31707421452802
-17.426267168737976,-13.818287472642593,-2.3283258691311923
3.7271307541520264,9.533673244244714,-2.364712938529379
13.421075805210828,15.040568144573829,7.91822020581105
2.1465725075602653,27.41114098702588,-2.1978621005927255
2.9679938694264365,55.31270698782493,1.0197634797860873
-1.3738092110563984,-17.543166066327043,-2.4999999999999996
-3.5109483297277464,-17.243064379775827,-2.4999999999999996
-6.398471348551517,-1.6555516874382339,-2.3191574975130567
12.616588714378777,34.76484253050405,4.331260388592624
-12.545956157629233,13.297257907695752,4.460279036216701
-42.23610099405748,-6.0701703951653725,7.673954170525876
-12.219277899846354,-11.248672851886681,-2.3595856192596454
12.801236232570805,30.51410666662423,5.951129047902147
12.46340288353781,38.73281097394247,4.259723189474844
12.44073726644097,37.0949154367634,-2.1628385669560966
14.16889086382936,-4.5592506923286855,7.606983670919247
-22.646494003593673,14.095971754078434,3.456351917557228
12.942948316745062,27.923598102912088,9.130372052177686
-22.663826109679242,14.10675986449332,7.211590325794146
-22.274522254945477,-13.964544592650649,7.44938103259091
-23.357447096801558,2.697212229303787,-2.1702098558005156
8.096935496178546,-12.569804814576116,-2.4999999999999973
13.760571150433828,5.236714766517629,5.16640717015722
14.45075074600409,-14.944385482507425,-1.1491743406073527
-7.227458139702612,-19.91516485246249,7.434180771073714
-22.983377372761915,-4.171781205565503,-2.156019993590886
0.8653743821747538,51.53162038976277,5.395640644051915
13.295326359134856,18.697829842258397,9.012143676357455
12.823783953163835,27.666508472682594,-0.5613902604329725
-20.154200431037363,-14.806650940671672,4.181494372671198
13.668239603314163,7.013342139253305,3.350892784266551
-11.726315196633127,9.005913962889739,-2.2860364565354585
12.952905893372943,-23.787758198555665,-2.5000000000000004
-9.65352076458617,-18.964339033986445,-0.39176081317701544
-3.0189896026544765,53.05700130242709,7.55003686020277
13.753516798921696,6.224526638238683,7.483188926096943
15.327406524656965,-37.481890461666126,-0.24847554431911567
10.269584967138147,15.630481646586043,-2.4233010333183804
14.624193177429376,-17.540566197984603,4.397108978656223
-14.513145037111952,-14.033754798241631,-2.364354144466389
-15.52857892208527,7.666131951917419,-2.243907670627637
11.686254429553166,7.527789787021738,-2.4999999999999982
14.795628115767808,-21.77587308028409,5.068993855908513
10.197461156837557,5.232442956831575,-2.5
-16.355112576418904,5.709325550697,-2.2445800664915705
12.379581421344572,41.97879489162358,7.317802049073703
4.869975310607411,-1.3071456118578946,-2.42282490071465
4.3311788775958755,-11.38108485332824,-2.499999999999999
4.276234900227918,2.396992746072722,-2.4299848118596024
-30.947350483803884,17.215936370481824,-1.9576496253197224
14.937505665466023,-27.43243684349297,-0.5750441368194662
4.378080197783193,5.99981326052693,-2.4032153415217583
-13.86489611238751,10.648363053418352,1.8302102911689548
-9.16456698647952,4.3853125583643555,-2.3470192878881915
15.20236031551698,-32.52218418795498,4.651635039826497
-35.19474389231128,19.01699320275183,0.7364666765566374
-11.824210302414594,14.911532865209354,2.2287483841244793
2.2116869250190643,53.47567472856922,7.603820275622356
11.969128321995454,-8.961044845185375,-2.4999999999999973
12.269332221263772,43.568651756532994,3.618192754082461
14.105744102449597,-5.715085958785567,-0.46707601678210753
14.637362029374811,-16.70516498032295,7.793717302688497
14.387747299390556,-12.217714712657656,1.9760758260208307
12.739281243482322,31.442578915800304,3.9731125538907337
14.970526388325364,-27.493078754843637,1.7305101739147348
7.194104604929855,4.149403883148397,-2.463742945366765
14.805574123424439,-23.61602901701676,0.513143570324041
-5.301700794679691,4.7308404561574315,-2.39581376015042
-5.998877063024736,-11.102120068280028,-2.4297133249217384
-22.67379530487436,14.112965041058796,9.37155314341773
12.698389881201495,33.69495499588051,7.392469905165022
-14.747317806406535,-16.940823966570072,7.881380799748415
12.077147300356334,49.85115019092696,7.287262784247396
2.9570820610233683,55.10935021302713,6.463339289095778
-26.854347293151065,-12.153662406682551,7.191571914497448
14.929863671291715,-24.476649764085646,7.368877615859278
15.057003292762433,-28.478531447389276,5.386255006042953
4.449095800196755,-30.956702582683796,-2.5
13.243775646821785,-28.332213024201266,-2.5
-21.91343303661291,-14.115704771448044,-0.15994278241547716
15.059216779866794,-29.348772539333588,3.044671266998965
0.1867905266339236,2.385263690171222,-2.3633838044868143
-49.02335834401142,-3.3934788379164655,0.9046722919099854
14.921963992117298,-25.871227022816488,2.7566320250035985
-1.9510984797007096,11.554235665069037,-2.2561637605678744
-2.572431682796151,2.5328537188454088,-2.317219792409129
-40.34972492037017,-6.8136300167809996,9.983733633194568
5.228187727924565,-8.81278799467065,-2.4999999999999987
-13.185968071684016,12.060064060395394,0.548397916071183
-0.4033057545377351,52.02367114190293,0.3192268464928039
-15.463574699043358,11.283812885015887,9.488905284194223
7.955330894735745,-17.57784703331095,-2.499999999999999
14.954021427456853,-25.926807185580383,5.004417039236681
3.240405661703766,4.011459804974121,-2.4003517539092076
14.011326190036172,-1.443964691125129,4.7492881629330075
6.052721447368838,9.995625935124158,-2.398994980292628
13.674541956099544,5.5919074789990875,-0.2719817806752566
-8.058949924862612,22.848292005010993,5.284612816991185
-3.3945530738553438,8.60087847312599,-2.2559282941927177
-31.82315000036713,17.703141527457777,9.359528589500366
12.360088763872959,-3.9772162687617465,-2.499999999999999
-19.711126003147438,12.95066190948132,9.600074209506028
12.900058011484136,26.958955422738068,3.1288270890764993
-1.1807446430884223,14.476398621697356,-2.2456679804662216
12.180170681058991,47.71005638100337,8.85556751876827
-14.40177457724643,3.302469832836275,-2.284490721205299
1.4067194342370755,13.6499216165742,-2.294388045192729
-25.982957967440694,5.290522662791226,-2.1196074746879736
14.331990260231727,-9.670309657587891,5.129025905054036
-17.330548893127375,12.005648436667881,-0.647014532825736
-8.60691908062581,10.854201122652627,-2.3161777260293284
15.196288525175722,-34.70481856961729,-2.094321561062514
-30.128808196946917,-0.9733750633427272,-2.037704810728146
-0.40336434219246925,52.0312285467963,7.3923339448633145
3.139753824571437,7.749413449505357,-2.369213459231735
13.970594086480828,-1.0940403099060325,2.698152600931304
2.2255756765173245,53.81148643370036,-1.6528457142033492
-14.132599741651426,-11.206549519467558,-2.3370371845719364
7.967814969174909,7.896115058730902,-2.446795263371227
-2.8563192037982867,-4.347366036176041,-2.344068513282909
4.29395114497037,13.344413205895751,-2.343885886467784
12.315417874000941,41.76121819805193,1.8712265519357
-9.50334676787009,-15.694080794795912,-2.3772818708102768
-31.798965080169012,17.689687514731425,5.626074398165931
-29.358613093113274,-11.172696324043006,-1.3500514146728535
14.038662875099753,-3.2192047160371353,1.686791000421412
13.325244353551408,17.35037842974924,7.376332916420517
-2.0957712411297513,5.941815464730438,-2.2980928443444713
-6.932344191292603,-19.858610033760094,-2.4633470358916876
2.4682010392209075,-11.924604250807613,-2.499999999999999
-25.944281583524905,-12.517757972460451,3.3736036993159484
-53.25193684738702,-1.7204167872528333,1.6351143945263182
15.190172223242975,-31.483122323429303,6.730493560789349
12.290233017681782,41.675817094265476,-0.26661069375514196
14.094117943822766,-3.4144997221573186,5.289432592799315
14.251793726946627,-9.616198170191485,-0.7389009909700133
10.437743041367417,-18.6209328944512,-2.4999999999999973
-7.525858016142007,-8.862552931864155,-2.386977709963684
-53.23326093902531,-1.7198134224145785,8.905374978282461
13.932882108050737,-1.435880482458626,-1.1196461858947222
-38.619359742926115,-7.500577895306837,7.574768228919496
-41.28415691128815,-6.4513942544789185,3.3401665367394444
13.79397431493653,3.210064481436678,1.835076051765997
12.998840554980404,24.056950504842384,2.185804837858951
14.518189150703144,-14.650020165597436,4.764676311356293
-15.174760704047436,-9.256050592688872,-2.3031374111461234
13.477795682077574,12.105059446260288,3.719161517863355
-8.00371309520096,-5.295742977176685,-2.3414616546357854
-15.896779014127796,1.8356880606749453,-2.273474131045552
-2.887341029878771,-36.870551434382236,-2.499999999999998
0.7405083203427891,-36.97601856238379,-2.499999999999998
-12.616596621070471,-34.764864317287945,-2.499999999999998
7.496084087903419,-36.21578419205263,-2.499999999999998
11.009755995429478,-35.30665056642094,-2.499999999999998
13.85934293055098,1.9918640966719872,3.234568935514574
-30.43887805563694,-10.736268337501057,7.040249882677099
12.327754519767876,39.98765110650982,-2.313159186700779
3.988464688588953,24.093453235459208,-2.2540813937439963
-6.223249430128713,-15.918525669695168,-2.4282380367653804
15.037980541636884,-26.82775629023328,8.714562247941533
14.033349838903902,-4.32632793167158,-1.9027815176992036
14.66840004482089,-18.03913967729743,6.280872540033666
12.240299202856663,45.603148089701854,7.300392670688762
-1.393815208664388,17.088728442445227,-2.2215787598453653
13.047498780362565,21.54698813278224,-1.3924622212997861
-50.347946010918484,-2.8648419961687326,5.279486355453653
13.130981314293987,20.53020621848865,1.9480800725337677
-18.408838778125283,-4.046533955813442,-2.2073965964288678
0.3998143047734222,23.80828391083609,-2.1978054515411936
-11.105046952781313,16.34415863268758,5.337989406344756
9.166680820303673,11.347891435401714,-2.439108696913378
12.781251698551122,31.546168696134885,7.4241953662205065
-23.82065482768465,-13.352385488837154,8.10105767017773
-31.772642275738967,17.67504420216748,1.5625925374832115
2.457068781717777,19.206468680222965,-2.267670282310974
-17.65679646176736,-7.731427061780416,-2.2574005669794612
15.250692140105116,-34.82906388007767,1.6340912628454083
13.541783547746226,11.574891198495449,6.997701268307084
-6.320521828640109,3.2173696434371104,-2.391339120729545
8.762789666887848,18.312759198303844,-2.3775608621107276
-34.12345219705938,-9.277400033658418,8.62750970040851
12.617024901507515,33.47905444827739,0.6586601426205648
2.2893678515345157,-17.4473156164343,-2.4999999999999996
4.616612734756361,-16.98048627797206,-2.4999999999999996
6.6604864489110644,-16.28766243642666,-2.4999999999999996
-7.320570388399061,24.531274149125917,2.0463993901251003
10.024291276977603,-9.630666958427673,-2.4999999999999982
-22.623742357028185,14.081810331683645,-1.4731042380565635
-15.451568096622479,11.275051634287077,5.67446337939514
-34.819021893034225,-9.009134730752711,2.4312008514328984
-18.533746700931136,-15.452243046014301,-0.14806355052000422
-0.986798028367119,-23.859475674794734,-2.4999999999999964
-28.31332047918466,-11.578118598131883,5.889679380308537
14.23059465606618,-7.025344491278437,5.135038178779262
11.98798803186373,-15.118073254191739,-2.499999999999999
-25.498701817558914,-12.69084999219877,6.212586929948413
-17.007290671066105,-16.046370206579443,8.528534281740445
-9.869655438008955,16.63658335967009,-2.265432443287771
-14.307402794975859,-0.2865303303085613,-2.2125499445134498
-28.953986269595504,16.575532880517986,7.707219013086358
-45.38375941287105,-4.825425387891232,7.631047464216747
13.790768551922636,2.3287691488677846,-0.9454239701633643
12.876488600009212,29.66757275458315,9.164090469755756
-18.813491571755005,2.8776781262240765,-2.228941409200208
-29.351493326773987,-11.169986830002715,3.6779615741177096
-19.698154699449788,12.942139465421727,6.367095888411348
14.87629995618058,-22.483273316050823,9.089985607047693
13.021751331083438,24.822955338409987,6.114180472083391
-35.084192643626814,2.314656921494476,-1.94365333024352
15.29896207515052,-34.93930128017327,4.94214799889276
-12.311101270793673,6.077731084657989,-2.295623311741943
1.27053978764608,7.1308183227882465,-2.343610422745103
-36.266294604755885,-8.439710088338044,-0.2284762404487484
12.165326223482053,45.32382453522954,0.8639387703264396
11.918059637327461,-12.946423516176893,-2.4999999999999996
9.163335530530508,-15.022759710986165,-2.4999999999999996
15.083585469848773,-31.262210819211322,-0.6390207781857348
-19.69080957419795,12.937313549651913,4.536390875372848
-8.247182752148001,17.643075873113965,-2.280843136447865
14.494169545581357,-12.933510645008774,7.907083232162793
-46.535182950383515,-4.371045500707142,-2.0087875548779754
-11.98430236091962,14.374225391306316,8.158653585747237
-22.52256824808911,6.342561937791802,-2.1596813375548365
-31.013726263289055,-10.512904403810413,3.4283156332877094
-9.572697409877227,19.840354611594915,-1.4891117414526978
13.894951358679904,2.5221139604610654,7.437318203969656
-12.704738650738733,13.138729965545366,-1.010325340058101
-11.287137255520104,-3.6722691531659133,-2.285369719866965
-14.258844957610295,9.877741364666743,-2.2475637463512355
-20.006240388577414,12.114518997319307,-2.1587285944407313
11.905100270556543,12.700020906916306,-2.4730989151849654
12.092398625858898,1.436000829288054,-2.499999999999999
13.874940449911387,-0.4033657352269438,-2.4963781958366016
15.33425497037774,-35.019902113964235,7.360856449218782
-12.902334605834886,-17.68163093472805,-2.2915310629331036
6.006927427318722,2.456402745661647,-2.457741360902867
0.03868520102426758,8.55927599301139,-2.3122482741818366
13.614692533891361,9.250509814201632,5.775804826227103
1.5176275934225516,-8.987258740986526,-2.46221284945558
-33.46495371037999,-9.540900708679366,5.818385246924078
-8.100964436820895,22.96740924070808,-1.0466926331795439
14.665791977512425,-18.968615940814974,3.4064206497589686
4.23992533909274,15.796504637958547,-2.323654947625608
-17.00985622916329,-16.04879080935564,5.402412224700276
12.493855554973637,38.82744945890498,6.819866066052295
-37.80746567868083,-7.825536522279895,4.041986725757692
