1.9325636699433362,-1.711559537509312,-2.4277868187604317
1.9114568755517436,-1.7351844908368799,-2.4278404096296424
1.8900513315925591,-1.7585399085510494,-2.42788121765935
1.8683505849100968,-1.781621890691444,-2.4279092354144978
1.846358236430463,-1.8044265867999854,-2.4279244577899695
1.8240779404017844,-1.826950196746475,-2.4279268820119597
1.8015134036199507,-1.8491889715408114,-2.4279165076387206
1.7786683846402067,-1.871139214131478,-2.4278933365606794
1.7555466929748538,-1.892797280190043,-2.427857372999933
1.7321521882773163,-1.9141595788814216,-2.42780862350911
1.708488779512939,-1.935222573619565,-2.42774709696961
1.6845604241167802,-1.9559827828083372,-2.4276728045892195
1.660371127138687,-1.9764367805673502,-2.4275857598990966
1.6359249403760354,-1.9965811974424457,-2.427485978750143
1.6112259614943982,-2.0164127211006186,-2.427373479308745
1.5862783331364947,-2.03592809700914,-2.4272482820519024
1.561086242019769,-2.055124129098628,-2.4271104097617395
1.535653918022882,-2.0739976804098954,-2.4269598875194007
1.5099856332615307,-2.092545673724301,-2.426796742698336
1.4840857011539086,-2.1107650921774312,-2.426621004956981
1.4579584754761303,-2.128652979855941,-2.426432706230831
1.4316083494080367,-2.1462064423773146,-2.426231880723914
1.4050397545697169,-2.1634226474523968,-2.426018564899671
1.3782571600490736,-2.1802988254305484,-2.425792797471245
1.351265071420867,-2.1968322698272105,-2.4255546193911752
1.324068029757565,-2.2130203378337785,-2.4253040738405245
1.296670610632377,-2.2288604508096137,-2.425041206217415
1.2690774231148798,-2.244350094756061,-2.424766064125002
1.2412931087595522,-2.2594868207723815,-2.4244786973588806
1.2133223405876754,-2.274268245493438,-2.4241791578939322
1.185169822062948,-2.288692051509052,-2.4238674998706204
1.1568402860611628,-2.3027559877649515,-2.4235437795807364
1.12833849383441,-2.3164578699452,-2.4232080554526108
1.099669233970155,-2.3297955808360227,-2.4228603880357875
1.0708373213455409,-2.3427670706710053,-2.4225008399851773
1.0418475960773927,-2.355370357457557,-2.4221294760446894
1.0127049224682418,-2.3676035272846203,-2.421746363030357
0.9834141879487879,-2.3794647346115783,-2.421351569812959
0.9300998679393145,-2.3311008865988097,-2.4190644698565746
0.9012719172613133,-2.3419448669941745,-2.41865730778202
0.8723138852921232,-2.3524215698147586,-2.418238976139148
0.8432306043139735,-2.362529461737006,-2.4178095495552716
0.8140269240388068,-2.372267076861331,-2.4173691045626793
0.7847077105745222,-2.38163301688582,-2.416917719579211
0.7552778453903203,-2.390625951261868,-2.4164554748884077
0.725742224281511,-2.399244617331779,-2.4159824526192426
0.6961057563341535,-2.407487820448377,-2.415498736725451
0.6663733628898844,-2.4153544340766686,-2.4150044129644543
0.6365499765112975,-2.42284339987761,-2.414499568875902
0.606640539948231,-2.4299537277740604,-2.4139842937598304
0.5766500051053195,-2.436684495998962,-2.413458678654451
0.5465833320111511,-2.4430348511258684,-2.412922816313585
0.5164454877893954,-2.4490040080818702,-2.4123768011837416
0.4862414456322325,-2.45459125014304,-2.411820729380856
0.45597618377643134,-2.45979592891249,-2.4112546986667023
0.4256546844824143,-2.464617464281158,-2.4106788084249837
0.39528193301663966,-2.4690553443714327,-2.4100931596371127
0.364862916637635,-2.4731091254637554,-2.409497854857689
0.33440262358600437,-2.4767784319063253,-2.408892998189696
0.3039060420787304,-2.480062956008045,-2.4082786952594106
0.2733781593080946,-2.4829624579148644,-2.4076550531910486
0.2428239604455103,-2.485476765469668,-2.4070221805811514
0.21224842765059782,-2.4876057740558633,-2.4063801874727258
0.18165653908578708,-2.4893494464248493,-2.405729185329145
0.15105326793675053,-2.4907078125075324,-2.405069287007828
0.12044358143895688,-2.4916809692100568,-2.4044006067336965
0.08983243991063135,-2.492269080193962,-2.4037232600724354
0.05922479579240239,-2.4924723756409266,-2.403037363903549
0.02862559269390991,-2.492291152002321,-2.4023430363932423
-0.0019602355523568827,-2.4917257717337558,-2.401640396967124
-0.03252776582973017,-2.490776663014833,-2.4009295662827466
-0.06307208666827954,-2.4894443194543285,-2.400210666201999
-0.09358829916773954,-2.4877292997809977,-2.3994838197633515
-0.12407151791218214,-2.485632227520247,-2.3987491511539742
-0.1545168718762132,-2.483153790656883,-2.3980067856817313
-0.18491950532245469,-2.480294741284183,-2.3972568497470705
-0.2152745786900883,-2.477055895239506,-2.3964994708148026
-0.24557726947424313,-2.4734381317266974,-2.395734777385803
-0.27582277309601483,-2.469442392925518,-2.394962898968627
-0.30600630376291077,-2.4650696835883465,-2.3941839660510533
-0.3361230953195248,-2.4603210706244125,-2.3933981100715784
-0.36616840208824797,-2.4551976826717925,-2.392605463390847
-0.3961374996998274,-2.449700709657448,-2.391806159263058
-0.42602568591360956,-2.443831402345542,-2.39100033180733
-0.45582828142727544,-2.437591071874309,-2.390188115979051
-0.4855406306759208,-2.4309810892817323,-2.3893696475412187
-0.515158102620317,-2.424002885020295,-2.388545063035776
-0.5446760915242043,-2.416657948461078,-2.38771449975496
-0.5740900177204723,-2.408947827387461,-2.3868780957126643
-0.6033953283660946,-2.400874127478708,-2.3860359896158307
-0.6325874981856848,-2.3924385117837,-2.3851883208358746
-0.6616620302035556,-2.3836427001850984,-2.384335229380158
-0.6906144564641569,-2.374488468854198,-2.383476855863514
-0.7194403387408014,-2.3649776496967556,-2.3826133414798325
-0.748135269232555,-2.3551121297900646,-2.3817448279737174
-0.7766948712492124,-2.3448938508115558,-2.3808714576122254
-0.8051147998842646,-2.3343248084591877,-2.3799933731566854
-0.8333907426757754,-2.323407051863922,-2.3791107178346182
-0.8615184202550973,-2.312142682994542,-2.3782236353117585
-0.8894935869833552,-2.300533856055098,-2.3773322696641856
-0.9173120315756368,-2.288582776875258,-2.3764367653505714
-0.9449695777128373,-2.2762917022938276,-2.3755372671845576
-0.9724620846411097,-2.2636629395357297,-2.374633920307263
-0.999785447758875,-2.250698845582699,-2.3737268701599317
-1.0269355991913682,-2.237401826537973,-2.372816262456725
-1.053908508352676,-2.223774336985258,-2.371902243157673
-1.080700182495257,-2.2098188793422207,-2.37098495844178
-1.107306667246916,-2.195538003208787,-2.3700645546802983
-1.133724047135238,-2.1809343047105196,-2.369141178410177
-1.1599484460994562,-2.1660104258373196,-2.3682149763076863
-1.1859760279897777,-2.1507690537777333,-2.3672860951622265
-1.2118029970541548,-2.1352129202491197,-2.3663546818503303
-1.2374255984125293,-2.1193448008239297,-2.3654208833098553
-1.2628401185185623,-2.103167514252365,-2.364484846514384
-1.2880428856088677,-2.086683921781669,-2.3635467184478243
-1.3130302701397965,-2.0698969264722846,-2.362606646079226
-1.3377986852117854,-2.0528094725111536,-2.3616647763378085
-1.3623445869813247,-2.035424544522387,-2.36072125608821
-1.3866644750605854,-2.0177451668755495,-2.3597762321059683
-1.410754892904754,-1.9997744029918065,-2.358829851053219
-1.434612428187136,-1.981515354648167,-2.357882259454639
-1.458233713162078,-1.9629711612800513,-2.3569336036736175
-1.4816154250157847,-1.944144999282423,-2.3559840298886736
-1.50475428620509,-1.9250400813097057,-2.355033684070118
-1.527647064784257,-1.9056596555747176,-2.35408271195696
-1.5502905747198938,-1.886007005146828,-2.3531312590340674
-1.5726816761940503,-1.8660854472495711,-2.3521794705095798
-1.594817275895597,-1.8458983325579177,-2.351227491292578
-1.6166943272999679,-1.8254490444954223,-2.3502754659710163
-1.6383098309373598,-1.8047409985314466,-2.349323538789913
-1.6596608346494923,-1.783777641478659,-2.3483718536298075
-1.6807444338350193,-1.7625624507910187,-2.3474205539854824
-1.701557771683703,-1.7410989338624254,-2.3464697829449555
-1.7220980393994576,-1.7193906273262365,-2.3455196831687437
-1.7423624764123724,-1.6974410963558233,-2.3445703968693956
-1.7623483705798153,-1.6752539339663723,-2.3436220657912976
-1.7820530583767673,-1.6528327603180766,-2.342674831190762
-1.8014739250754561,-1.6301812220209242,-2.341728833816381
-1.820608404914466,-1.6073029914412282,-2.3407842138896657
-1.8394539812574027,-1.5842017660100753,-2.3398411110859607
-1.8580081867412643,-1.5608812675338568,-2.3388996645156355
-1.8762686034146516,-1.5373452415070243,-2.3379600127055613
-1.894232862865923,-1.5135974564272405,-2.3370222935808598
-1.9118986463414533,-1.489641703113067,-2.33608664444694
-1.9292636848541205,-1.465481794024322,-2.3351532019718095
-1.946325759282165,-1.441121562585258,-2.3342221021686704
-1.9630827004585374,-1.4165648625107092,-2.3332934803787926
-1.9795323892509151,-1.3918155671352952,-2.3323674712546696
-1.9956727566324857,-1.3668775687458719,-2.331444208743454
-2.0115017837436744,-1.3417547779172792,-2.3305238260706687
-2.0270175019449397,-1.3164511228515763,-2.3296064557242038
-2.04221799286079,-1.290970548720818,-2.3286922294385843
-2.0571013884151728,-1.2653170170135135,-2.3277812781795197
-2.071665870858371,-1.2394945048848698,-2.326873732128726
-2.085909672785561,-1.2135070045109206,-2.3259697206690295
-2.0998310771471878,-1.1873585224466225,-2.325069372369734
-2.113428417251299,-1.1610530789880253,-2.3241728149722727
-2.1267000767579813,-1.1345947075386154,-2.3232801753761207
-2.139644489666071,-1.1079874539798802,-2.322391579624985
-2.1522601402922557,-1.0812353760462234,-2.321507152893258
-2.1645455632427613,-1.0543425427042514,-2.32062701947274
-2.1764993433777273,-1.0273130335365614,-2.319751302759624
-2.1881201157684607,-1.0001509381300486,-2.3188801252417472
-2.199406565647696,-0.9728603554688198,-2.318013608486099
-2.210357428353018,-0.9454453933317892,-2.3171518731265888
-2.220971489263602,-0.9179101676949669,-2.3162950388520755
-2.231247583730406,-0.89025880213855,-2.3154432243946426
-2.2411845969999926,-0.8624954272588057,-2.3145965475181343
-2.2507814641320887,-0.83462418008485,-2.313755125006934
-2.2600371699110755,-0.8066492035003044,-2.3129190726549984
-2.2689507487515104,-0.7785746456699262,-2.3120885052551254
-2.277521284597874,-0.7504046594711884,-2.3112635365884784
-2.2857479108186394,-0.7221434019308943,-2.310444279414337
-2.2936298100948553,-0.6937950336668127,-2.3096308454600942
-2.3011662143033482,-0.6653637183343661,-2.3088233454114846
-2.3083564043947042,-0.6368536220784212,-2.308021888903043
-2.315199710266175,-0.6082689129901422,-2.307226584508794
-2.321695510629633,-0.5796137605689853,-2.3064375397331682
-2.32784323287473,-0.5508923351897784,-2.3056548610021377
-2.333642352927383,-0.5221088075749569,-2.3048786536545776
-2.339092395103737,-0.49326734827190666,-2.3041090219338396
-2.3441929319597223,-0.464372127135439,-2.3033460689795393
-2.3489435841363564,-0.4354273128154011,-2.3025898968195637
-2.3533440202009093,-0.40643707224940734,-2.301840606362273
-2.357393956484066,-0.37740557016067644,-2.3010982973889194
-2.3610931569132134,-0.348336968560969,-2.3003630685462575
-2.3644414328419843,-0.31923542625863577,-2.299635017339366
-2.367438642876168,-0.29010509837170584,-2.29891424012465
-2.3700846926961225,-0.26095013584606364,-2.2982008321030487
-2.372379534875808,-0.23177468497862405,-2.2974948873134227
-2.374323168698554,-0.20258288694554785,-2.2967964986261347
-2.3759156399696786,-0.17337887733541812,-2.2961057577368065
-2.377157040826082,-0.14416678568737268,-2.29542275516026
-2.378047509542915,-0.11495073503416676,-2.294747580224631
-2.378587230337444,-0.08573484145012622,-2.2940803210656617
-2.3787764331702097,-0.05652321360394541,-2.2934210646211524
-2.378615393543602,-0.027319952316300522,-2.2927698966255936
-2.378104432297937,0.0018708498777391292,-2.292126901604949
-2.3772439154051463,0.03104510916159512,-2.2914921628716045
-2.3760342537601904,0.06019875086533745,-2.290865762519475
-2.3744759029702642,0.08932770988922797,-2.290247781419261
-2.372569363141923,0.11842793112263111,-2.289638299213859
-2.3703151786662007,0.14749536985839337,-2.2890373943139166
-2.3677139380018115,0.1765259922027176,-2.2884451438935325
-2.3647662734565413,0.20551577548057884,-2.2878616238861
-2.361472860966888,0.23446070863674154,-2.2872869089802825
-2.357834419876063,0.26335679263244266,-2.2867210726161313
-2.3538517127104077,0.2922000408377892,-2.2861641869813267
-2.3845143854749598,0.3257665699202279,-2.3196534353891622
-2.3793060950943894,0.3548499239260668,-2.3186486376962647
-2.3737588833190713,0.38385705862809644,-2.3176590900861
-2.367873914992301,0.4127842484646591,-2.3166849034637296
-2.3616523903860087,0.44162778689968146,-2.3157261866871583
-2.355095544883222,0.47038398661608355,-2.3147830465707786
-2.3482046486635784,0.49904917970409346,-2.3138555878889098
-2.3409810063919716,0.5276197178446137,-2.3129439133794296
-2.3334259569103883,0.5560919724878014,-2.312048123747489
-2.3255408729329807,0.5844623350270222,-2.3111683176692974
-2.3173271607444494,0.6127272169683259,-2.3103045917959784
-2.3087862599017663,0.6408830500955731,-2.3094570407574753
-2.299919642939292,0.6689262866314166,-2.3086257571665145
-2.2907288150773346,0.6968533993942252,-2.3078108316226063
-2.2812153139341707,0.7246608819511706,-2.3070123527160784
-2.2713807092415847,0.7523452487675594,-2.306230407032143
-2.261226602563939,0.7799030353526187,-2.305465079154974
-2.2507546270208114,0.8073307984018585,-2.3047164516718057
-2.239966447013221,0.8346251159361552,-2.303984605177033
-2.2288637579534605,0.8617825874377152,-2.3032696182763073
-2.2174482859985574,0.8887998339830733,-2.3025715675906304
-2.205721787787363,0.9156734983732681,-2.3018905277604316
-2.1936860501813014,0.9424002452613178,-2.3012265714496207
-2.1813428900087555,0.9689767612771937,-2.300579769349621
-2.168694153813126,0.9953997551503736,-2.299950190183361
-2.155741717604528,1.021665957830183,-2.299337900709235
-2.1424874866151526,1.0477721226040049,-2.2987429657250136
-2.128933395058265,1.0737150252135497,-2.2981654480717064
-2.1150814058908365,1.0994914639693039,-2.2976054086373687
-2.1009335105798037,1.125098259863293,-2.2970629063608494
-2.0864917288719256,1.1505322566803018,-2.296537998235467
-2.071758108567231,1.1757903211076977,-2.2960307393126236
-2.0567347252960206,1.2008693428439903,-2.295541182705336
-2.0414236822994187,1.2257662347062355,-2.2950693795916877
-2.025827110213423,1.2504779327364697,-2.2946153792182042
-2.0099471668564406,1.27500139630724,-2.294179228903126
-1.9937860370202618,1.2993336082264348,-2.2937609740396
-1.97734593226445,1.323471574841466,-2.2933606580987678
-1.960629090714092,1.3474123261429944,-2.292978322632757
-1.9436377768608735,1.3711529158682967,-2.2926140072775647
-1.926374281367449,1.3946904216043796,-2.2922677497558337
-1.908840920875027,1.418021944891015,-2.291939585879522
-1.8910400378141567,1.4411446113237538,-2.29162954955245
-1.8729740002186281,1.4640555706571012,-2.2913376727727375
-1.8546452015424684,1.4867519969079124,-2.291063985635116
-1.8360560604799343,1.5092310884591775,-2.290808516333121
-1.8172090207884868,1.5314900681642623,-2.2905712911611555
-1.798106551114635,1.55352618345176,-2.2903523345164305
-1.778751144822638,1.5753367064310269,-2.290151668900769
-1.7591453198259506,1.596918933998542,-2.2899693149222844
-1.7392916184213678,1.618270187945178,-2.2898052912969216
-1.7191926071258001,1.6393878150644907,-2.2896596148498607
-1.6988508765155823,1.6602691872621471,-2.2895323005167882
-1.6782690410682717,1.68091170166656,-2.2894233613450257
-1.6574497390068186,1.7013127807408723,-2.2893328084945193
-1.636395632146072,1.721469872396339,-2.2892606512386893
-1.615109405741494,1.7413804501072567,-2.2892068969651374
-1.5935937683400376,1.7610420130274715,-2.2891715511762083
-1.5718514516330662,1.780452086108622,-2.289154617489414
-1.5498852103112575,1.7996082202201495,-2.2891560976377088
-1.5276978219213768,1.818507992271198,-2.2891759914696213
-1.5052920867248294,1.8371490053344812,-2.289214296949243
-1.4826708275579255,1.8555288887721806,-2.289271010156075
-1.4598368896937104,1.8736452983639886,-2.2893461252847245
-1.436793140705318,1.891495916437336,-2.289439634644463
-1.413542470330692,1.9090784519999195,-2.289551528658638
-1.3900877903386284,1.926390640874565,-2.2896817958639453
-1.366432034395976,1.9434302458365287,-2.289830422909555
-1.3425781579359497,1.960195056753281,-2.2899973945561007
-1.318529138027393,1.9766828907268648,-2.290182693674526
-1.294287973244928,1.9928915922388595,-2.290386301244795
-1.2698576835398487,2.0088190332980456,-2.2906081963544644
-1.2452413101116544,2.024463113590813,-2.2908483561971194
-1.220441915280129,2.039821760634357,-2.291106756070677
-1.195462582357811,2.0548929299327523,-2.2913833693755583
-1.1703064155227845,2.069674605135911,-2.291678167612729
-1.1449765396916216,2.0841647982015217,-2.2919911203816157
-1.1194761003924107,2.0983615495599657,-2.292322195377891
-1.0850693933982247,2.0953872177436907,-2.27435429298876
-1.0594036211734583,2.108802798027795,-2.2746324610174997
-1.0335767319647842,2.1219137413417255,-2.274921094186196
-1.0075922012081542,2.1347181362748846,-2.2752201569531314
-0.9814535265844712,2.1472141077291416,-2.2755296124605775
-0.9551642277233489,2.159399817165101,-2.275849422535955
-0.9287278459045,2.1712734628481107,-2.276179547693054
-0.9021479437566282,2.182833280094018,-2.2765199471333157
-0.8754281049538225,2.1940775415146243,-2.2768705787471784
-0.8485719339093122,2.205004557262862,-2.2772313991154873
-0.8215830554665837,2.2156126752776286,-2.277602363510975
-0.7944651145877186,2.2259002815282987,-2.2779834258998055
-0.7672217760389515,2.2358658002588525,-2.2783745389431975
-0.7398567240733086,2.245507694231625,-2.2787756539991157
-0.7123736621103225,2.254824464970621,-2.279186721124042
-0.6847763124127009,2.263814653004381,-2.279607689074823
-0.6570684157598968,2.2724768381083575,-2.2800385053105967
-0.6292537311185359,2.280809639546764,-2.280479115994809
-0.6013360353095742,2.288811716313865,-2.2809294659973083
-0.5733191226721845,2.2964817673746496,-2.2813894988965315
-0.545206804724234,2.3038185319048723,-2.2818591569817825
-0.5170029098193505,2.3108207895303807,-2.2823383812555997
-0.4887112828004442,2.3174873605657154,-2.282827111436225
-0.4603357846496817,2.323817106251902,-2.2833252859601636
-0.4318802921347801,2.329808928993407,-2.283832841984855
-0.40334869745161717,2.3354617725941775,-2.2843497153914383
-0.3747449078630411,2.3407746224927295,-2.284875840787631
-0.3460728453338356,2.3457465059962073,-2.2854111515107154
-0.31733644616179546,2.3503764925133566,-2.285955579630636
-0.28853966060479824,2.35466369378635,-2.2865090559532155
-0.2596864525038734,2.358607264121388,-2.2870715100234853
-0.23078079890214162,2.362206400618015,-2.2876428701291416
-0.20182668965962902,2.365460343397066,-2.2882230633041227
-0.172828127063832,2.3683683758271843,-2.288812015332315
-0.14378912543603972,2.3709298247498123,-2.289409650751389
-0.11471371073329173,2.3731440607025935,-2.2900158928567675
-0.08560592014597904,2.3750104981410978,-2.2906306637057354
-0.05646980169098309,2.376528595658777,-2.2912538841216827
-0.027309413800319895,2.3776978562050757,-2.2918854736984935
0.0018711750947402034,2.378517827301599,-2.2925253508050827
0.031067886984179657,2.37898810125625,-2.293173432590078
0.060276634704350324,2.3791083153752437,-2.2938296349866567
0.08949332236781336,2.3788781521728937,-2.294493872717541
0.11871384579787941,2.3782973395790843,-2.2951660593001435
0.14793409296795923,2.3773656511443155,-2.295846107051885
0.17714994444569787,2.3760829062422264,-2.29653392709567
0.20635727384199928,2.374448970269489,-2.297229429365534
0.23555194826491155,2.3724637548429612,-2.2979325226124634
0.2647298287784614,2.3701272179939967,-2.2986431144103867
0.2938867708664488,2.3674393643597957,-2.299361111162349
0.32301862490121014,2.3644002453716757,-2.300086418106862
0.35212123661743205,2.3610099594401692,-2.300818939324446
0.3811904475909744,2.3572686521367987,-2.3015585777443506
0.41022209572279517,2.3531765163724385,-2.302305235151477
0.43921201572792734,2.3487337925721232,-2.3030588121934867
0.46815603962959645,2.343940768846184,-2.3038192083881075
0.49704999725842475,2.3387977811575964,-2.3045863221306484
0.5258897167568031,2.3333052134853953,-2.3053600507017094
0.5546710250883738,2.327463497984044,-2.3061402902751005
0.5833897485526872,2.3212731151386223,-2.306926935925975
0.6120417133050103,2.3147345939156896,-2.3077198816391706
0.640622745881274,2.307848511909713,-2.3085190203177675
0.6691286737282031,2.3006154954849016,-2.309324243791869
0.6975553257385653,2.2930362199123255,-2.3101354428275993
0.7258985327915926,2.285111409502173,-2.31095250713633
0.7541541282985045,2.276841837731014,-2.3117753253841333
0.7823179487531671,2.268228327363919,-2.312603785201464
0.8103858342878477,2.259271750571302,-2.313437773193077
0.8383536292340409,2.2499730290403375,-2.3142771749481827
0.8662171826883445,2.2403331340808066,-2.315121875050833
0.8939723490833723,2.23035308672524,-2.3159717570905634
0.9216149887636584,2.2200339578231842,-2.3168267036732613
0.9491409685665027,2.209376868129482,-2.317686596432297
0.9765461624077634,2.1983829883863777,-2.3185513160398927
1.0038264518724975,2.1870535393993387,-2.3194207422187483
1.0309777268104612,2.175389792106408,-2.320294753753918
1.057995885936363,2.163393067640972,-2.3211732285049465
1.0848768374348638,2.151064737387762,-2.3220560434182578
1.1116164995702433,2.1384062230319616,-2.3229430745398094
1.1382108013006667,2.1254189966012573,-2.3238341970280043
1.1646556828969945,2.1121045805006924,-2.324729285166871
1.1909470965660713,2.0984645475401567,-2.3256282123795056
1.2170810070784175,2.0845005209543728,-2.326530851241784
1.2430533924002187,2.070214174415234,-2.327437073496343
1.2688602443295895,2.055607232036317,-2.3283467500668285
1.2944975691369556,2.0406814683694625,-2.3292597510724216
1.3199613882095311,2.025438708393214,-2.330175945842635
1.3452477386997375,2.0098808274930353,-2.3310952029323846
1.3703526741775103,1.9940097514330917,-2.3320173901373344
1.395272265286373,1.9778274563194909,-2.3329423745095235
1.420002600403164,1.9613359685548182,-2.3338700223732656
1.4445397863013134,1.9445373647838284,-2.334800199341332
1.46887994881756,1.927433771830134,-2.3357327703314072
1.4930192335219856,1.9100273666237562,-2.3366675995828325
1.5169538063912198,1.8923203761194063,-2.3376045506736203
1.5406798544847324,1.874315077205323,-2.338543486537757
1.5641935866240302,1.8560137966025725,-2.339484269482781
1.5874912340746647,1.8374189107546184,-2.340426761207646
1.610569051230875,1.8185328457070762,-2.341370822820859
1.633423316302738,1.7993580769774815,-2.3423163148589
1.6560503320056852,1.779897129414952,-2.343263097304928
1.6784464262522003,1.7601525770496158,-2.344211029607755
1.7006079528455653,1.7401270429316769,-2.34515997070111
1.7225312921754863,1.7198231989599786,-2.346109779023169
1.7442128519154336,1.6992437656999508,-2.3470603125363714
1.7656490677215055,1.6783915121908353,-2.348011428747508
1.7868364039326785,1.6572692557420308,-2.348962984728081
1.807771354272215,1.6358798617184906,-2.349914837134942
1.8284504425500978,1.61422624331501,-2.350866842231195
1.8488702233662548,1.5923113613193447,-2.3518188559073727
1.869027282814415,1.5701382238640134,-2.352770733702882
1.8889182391863908,1.5477098861666905,-2.3537223308277073
1.9085397436765759,1.5250294502591126,-2.3546735021843856
1.9278884810864672,1.5021000647043776,-2.355624102390236
1.9469611705290006,1.4789249243025477,-2.3565739857998493
1.9657545661324956,1.45550726978447,-2.3575230065278334
1.984265457743966,1.4318503874937487,-2.35847101847181
2.0024906716316253,1.4079576090567474,-2.359417875335661
2.0204270711863086,1.3838323110405937,-2.3603634306530172
2.0380715576216466,1.359477914599068,-2.3613075378109984
2.0554210706726974,1.3348978851063529,-2.362250050074179
2.072472589292861,1.3100957317785413,-2.3631908206088013
2.089223132348809,1.2850750072828672,-2.364129702507209
2.105669759313192,1.259839307334604,-2.365066548812517
2.121809570954898,1.234392270281582,-2.366001212543493
2.1376397100266007,1.2087375766762696,-2.366933546719666
2.153157361949369,1.1828789488353857,-2.367863404386644
2.1683597554940595,1.156820150387035,-2.368790638641639
2.1832441634592716,1.1305649858052824,-2.3697151026591916
2.1978079033455815,1.1041172999322182,-2.3706366497171065
2.212048338025824,1.0774809774874168,-2.371555133222564
2.2259628764111286,1.0506599425648546,-2.372470406738427
2.239548974112483,1.023658158117224,-2.373382324009728
2.2528041340975453,0.9964796254276659,-2.37429073899033
2.265725907342418,0.9691283835689481,-2.3751955058697574
2.2783118934781608,0.9416085088500508,-2.3760964791001866
2.2905597414317302,0.9139241142502401,-2.3769935134235953
2.3024671500611036,0.8860793488405916,-2.377886463899059
2.3140318687842965,0.8580783971930581,-2.378775185930192
2.325251698202018,0.8299254787770546,-2.3796595352927237
2.3361244907136745,0.8016248473436707,-2.3805393681621996
2.346648151126456,0.7731807902974918,-2.381414541141808
2.3568206372572282,0.7445976280561563,-2.3822849112903195
2.366639960526949,0.7158797133976534,-2.3831503361501247
2.3761041865473453,0.6870314307954579,-2.3840106737753843
2.3852114356995546,0.6580571957415963,-2.3848657827602553
2.3939598837044795,0.6289614540576793,-2.3857155222672075
2.4023477621845486,0.5997486811940519,-2.3865597520554087
2.4103733592166443,0.5704233815170944,-2.38739833250918
2.4180350198758847,0.5409900875848438,-2.388231124666503
2.4253311467700134,0.5114533594109911,-2.38905799024758
2.4322602005641123,0.4818177837173999,-2.389878791683428
2.438820700495357,0.45208797317527366,-2.3906933921445064
2.4450112248775646,0.4222685656350989,-2.391501655569364
2.4508304115952395,0.3923642233454922,-2.392303446693302
2.4562769585868707,0.36237963216110325,-2.393098631077034
2.461349624317196,0.33231950073975264,-2.3938870751353423
2.466047228238181,0.30218855972890846,-2.394668646165718
2.4703686512384495,0.2719915609417352,-2.395443212376973
2.4743128360808995,0.24173327652282176,-2.396210642917821
2.4778787878282484,0.21141849810383295,-2.3969708079054044
2.4810655742562657,0.181052035949221,-2.397723578453775
2.4838723262544242,0.15063871809221246,-2.398468826702304
2.4862982382137324,0.12018338946127999,-2.3992064258440178
2.4883425684015,0.08969091099729712,-2.3999362501538455
2.4900046393228,0.05916615876158201,-2.400658175016773
2.4912838380683824,0.02861402303505754,-2.401372076955892
2.4921796166488135,-0.0019605925912199486,-2.402077833660329
2.492691492314606,-0.03255277213398484,-2.4027753240130467
2.4928190478621204,-0.06315758814383009,-2.403464428118511
2.4925619319250143,-0.09377010263924283,-2.4041450273302103
2.4919198592510203,-0.12438536804828602,-2.4048170042780095
2.490892610963855,-0.15499842815772247,-2.405480242895343
2.4894800348100374,-0.1856043190692916,-2.4061346284462224
2.487682045390427,-0.21619807016286133,-2.4067800475520578
2.4854986243762855,-0.24677470506618734,-2.4074163882182735
2.4829298207096677,-0.2773292426310049,-2.4080435398607154
2.4799757507879674,-0.30785669791515796,-2.4086613933318355
2.4766365986324286,-0.3383520831704616,-2.4092698409466444
2.472912616040468,-0.3688104088360091,-2.409868776508418
2.4688041227216235,-0.39922668453662724,-2.410458095334151
2.46431150641699,-0.42959592008616787,-2.4110376942797505
2.459435223001977,-0.45991312649528254,-2.411607471764948
2.4541757965722444,-0.4901733169834498,-2.412167327797928
2.448533819512696,-0.520371507994832,-2.4127171639996687
2.4425099525493685,-0.5505027202177014,-2.413256883627962
2.436104924784121,-0.5805619796070836,-2.413786391601132
2.429319533711997,-0.6105443184102607,-2.414305594521418
2.422154645221143,-0.6404447761948592,-2.4148144006980248
2.4146111935752,-0.6702584008790978,-2.4153127201698275
2.406690181378063,-0.6999802497638875,-2.4158004647277163
2.398392679520913,-0.7296053905664727,-2.4162775479365792
2.389719827111474,-0.7591289024551835,-2.4167438851569076
2.380672831385396,-0.7885458770849826,-2.4171993935660163
2.371252967599716,-0.8178514196334863,-2.4176439921788706
2.361461578908339,-0.8470406498370174,-2.4180776018685055
2.3513000762195064,-0.8761087030263928,-2.4185001453860395
2.340769938035197,-0.9050507311620577,-2.418911547380258
2.329872710272449,-0.9338619038681798,-2.4193117344167696
2.3186100060665717,-0.9625374094653986,-2.419700634996726
2.306983505556244,-0.991072456001779,-2.4200781795750865
2.294994955650506,-1.0194622722816389,-2.420444300578435
2.282646169777617,-1.047702108891914,-2.420798932422324
2.2699390276158438,-1.0757872392256145,-2.4211420115281506
2.2568754748061717,-1.103712960502039,-2.421473476339554
2.2434575226469695,-1.131474594783409,-2.421793267338318
2.229687247770677,-1.1590674899874733,-2.422101327059787
2.2155667918025372,-1.1864870208957723,-2.422397600107774
2.2010983610014554,-1.2137285901571695,-2.4226820331689574
2.1862842258830453,-1.2407876292862592,-2.4229545750267674
2.171126720824927,-1.267659599656343,-2.4232151765747454
2.1556282436543954,-1.2943399934865254,-2.423463790829377
2.1397912552185314,-1.3208243348226045,-2.423700372942385
2.123618278936851,-1.3471081805114198,-2.4239248802124886
2.1071119003366396,-1.3731871211682316,-2.4241372720966083
2.0902747665710733,-1.3990567821368014,-2.4243375102205276
2.0731095859202378,-1.4247128244418488,-2.4245255583889875
2.0556191272752318,-1.4501509457334583,-2.424701382595229
2.037806219605464,-1.4753668812231426,-2.4248649510299614
2.0196737514093126,-1.500356404611188,-2.425016234089766
2.0012246701483263,-1.5251153290049213,-2.4251552043849203
1.9824619816651066,-1.5496395078276122,-2.4252818367466475
1.9633887495850868,-1.5739248357175983,-2.4253961082337807
1.9440080947023968,-1.597967249417335,-2.425497998138844
1.924323194349964,-1.621762728652072,-2.4255874879935453
1.904337281754126,-1.6453072969977633,-2.4256645615736776
1.8840536453739283,-1.6685970227379279,-2.4257292049034276
1.8634756282253113,-1.691628019709169,-2.425781406259089
1.8426066271904662,-1.7143964481349836,-2.4258211561721774
1.8214500923125567,-1.7368985154476002,-2.4258484474319495
1.8000095260760611,-1.7591304770975364,-2.4258632750873215
1.7782884826729999,-1.7810886373505588,-2.4258656364481825
1.7562905672552673,-1.802769350071812,-2.4258555310861154
1.7340194351733793,-1.824169019496768,-2.425832960834505
1.7114787912018952,-1.8452841009887577,-2.425797929788056
1.6886723887517456,-1.8661111017828316,-2.4257504443016997
1.6656040290698257,-1.8866465817156473,-2.4256905129889055
1.642277560426098,-1.9068871539411396,-2.4256181467193887
1.6186968772884855,-1.9268294856317696,-2.425533358616225
1.5948659194859083,-1.9464702986650355,-2.4254361640523565
1.5707886713597305,-1.9658063702950779,-2.4253265806465167
1.546469160903937,-1.9848345338091145,-2.4252046282585455
1.5219114588943854,-2.0035516791684964,-2.4250703289841264
1.4971196780073934,-2.021954753634196,-2.424923707148925
1.4720979719280654,-2.040040762376484,-2.4247647893021442
1.4468505344486462,-2.0578067690686197,-2.4245936042095004
1.4213815985572205,-2.075249896464396,-2.424410182845611
1.3956954355171478,-2.092367326959304,-2.4242145583858155
1.369796353937555,-2.1091563031351805,-2.424006766197414
1.343688698835197,-2.1256141282882,-2.423786843830348
1.3173768506881032,-2.1417381669399944,-2.423554831007312
1.2908652244813141,-2.1575258453318096,-2.423310769613305
1.2641582687450779,-2.1729746519015465,-2.42305470368463
1.2372604645858882,-2.1880821377435375,-2.4227866793973494
1.210176324710667,-2.2028459170509898,-2.422506745055187
1.1829103924445272,-2.2172636675409256,-2.422214951076903
1.155467240742452,-2.2313331308615516,-2.421911349983132
1.1278514711952137,-2.2450521129819774,-2.421595996382695
1.1000677130299807,-2.2584184845641615,-2.4212689469583966
1.0721206221059427,-2.2714301813170343,-2.4209302604523084
1.0440148799052893,-2.284085204332742,-2.4205799976505453
1.015755192519989,-2.2963816204049223,-2.4202182213675467
0.9873462896346857,-2.308317562328993,-2.419844996429863
0.9587929235060975,-2.319891229184404,-2.419460389659466
0.9068556058773812,-2.2728440028289443,-2.4172338739764916
0.8787517950812933,-2.283426584627358,-2.416837186094899
0.8505210145203701,-2.293651418225931,-2.416429612504894
0.822167963720633,-2.303517005726555,-2.4160112256333592
0.7936973592723781,-2.31302191462144,-2.4155820997583093
0.7651139338318891,-2.3221647779646317,-2.4151423109902215
0.7364224351222026,-2.330944294526185,-2.4146919372529454
0.7076276249332712,-2.339359228929012,-2.4142310582642224
0.6787342781218747,-2.3474084117684555,-2.4137597555158026
0.6497471816116224,-2.35509073971461,-2.413278112253183
0.6206711333933917,-2.362405175597466,-2.4127862134549685
0.5915109415265424,-2.369350748474912,-2.412284145811863
0.5622714231412511,-2.3759265536836813,-2.411771997705311
0.5329574034422867,-2.382131752873308,-2.4112498591857805
0.5035737147145796,-2.387965574023174,-2.410717821950717
0.4741251953309004,-2.393427311442745,-2.410175979322161
0.44461668876197863,-2.3985163257550743,-2.4096244262240485
0.4150530425893865,-2.403232043863706,-2.409063259159204
0.385439107521504,-2.4075739589030585,-2.4084925761860263
0.3557797364128827,-2.4115416301724304,-2.407912476894889
0.3260797832873204,-2.4151346830537403,-2.407323062384259
0.296344102364951,-2.4183528089131343,-2.406724435236541
0.2665775470936613,-2.4211957649866074,-2.406116699493666
0.2367849691851163,-2.423663374249769,-2.405499960632424
0.20697121765570867,-2.4257555252719136,-2.4048743255395566
0.17714113787270636,-2.4274721720545593,-2.4042399024866232
0.1472995706058881,-2.4288133338545945,-2.403596801104637
0.11745135108494702,-2.4297790949922287,-2.4029451323585
0.08760130806293479,-2.430369604643904,-2.402285008521229
0.05775426288601685,-2.4305850766203507,-2.401616543147998
0.02791502856980193,-2.4304257891299796,-2.400939851049993
-0.0019115911174959327,-2.4298920845277876,-2.400255048268101
-0.031720802564811246,-2.4289843690499886,-2.39956225204644
-0.061507823220643326,-2.427703112534557,-2.398861580805732
-0.09126788248791008,-2.426048848127891,-2.398153154116542
-0.12099622261098242,-2.4240221719778132,-2.3974370926723836
-0.15068809955468623,-2.4216237429131096,-2.3967135182627044
-0.18033878387504218,-2.418854282109835,-2.3959825537457626
-0.2099435615815275,-2.4157145727446023,-2.3952443230214007
-0.23949773499064833,-2.4122054596350813,-2.394498951003731
-0.26899662357061893,-2.408327848867935,-2.3937465635937376
-0.2984355647769479,-2.4040827074144278,-2.392987287651808
-0.3278099148787412,-2.3994710627339417,-2.392221250970204
-0.3571150497755365,-2.394494002365638,-2.3914485822454785
-0.3863463658044826,-2.3891526735085042,-2.3906694110508524
-0.4154992805377091,-2.383448282590033,-2.389883867808553
-0.44456923356969813,-2.3773820948237825,-2.3890920837621366
-0.47355168729451275,-2.3709554337560563,-2.388294190948786
-0.5024421276727263,-2.3641696808019717,-2.3874903221716113
-0.531236064987904,-2.357026274771148,-2.386680610971948
-0.5599290345924981,-2.3495267113832914,-2.3858651916016704
-0.5885165976430244,-2.341672542773915,-2.385044198995524
-0.6169943418243921,-2.333465376990462,-2.3842177687434867
-0.6453578820632673,-2.324906877479088,-2.383386037063172
-0.673602861230353,-2.3159987625623653,-2.382549140772272
-0.701724950831492,-2.3067428049081604,-2.381707217261063
-0.7297198516874718,-2.2971408309899637,-2.380860404464965
-0.757583294602453,-2.287194720538915,-2.38000884083718
-0.78531104102093,-2.2769064059877997,-2.379152665321402
-0.812898883673139,-2.266277871907277,-2.3782920173246205
-0.8403426472088442,-2.255311154434596,-2.377427036690011
-0.8676381888194299,-2.2440083406950695,-2.376557863669932
-0.8947813988482382,-2.232371568216566,-2.3756846388990254
-0.9217682013890975,-2.2204030243372825,-2.3748075033674407
-0.9485945548729903,-2.208104945607054,-2.3739265983941706
-0.9752564526428147,-2.1954796171824715,-2.373042065600528
-1.0017499235162146,-2.182529372216054,-2.3721540468837508
-1.0280710323364293,-2.1692565912397472,-2.3712626843907536
-1.0542158805111488,-2.1556637015429985,-2.370368120492026
-1.0801806065393542,-2.14175317654566,-2.3694704977556875
-1.1059613865261289,-2.1275275351659917,-2.368569958921704
-1.1315544346854272,-2.1129893411839955,-2.36766664687627
-1.1569560038308095,-2.0981412026003494,-2.3667607046263663
-1.1821623858541352,-2.082985770991183,-2.3658522752744906
-1.2071699121922301,-2.0675257408589403,-2.364941501993579
-1.23197495428154,-2.051763848979583,-2.3640285280021107
-1.2565739240007852,-2.0357028737463705,-2.3631134965394085
-1.2809632741016552,-2.0193456345104623,-2.362196550841139
-1.3051394986275524,-2.0026949909185747,-2.361277834115015
-1.329099133320435,-1.985753842247938,-2.360357489516705
-1.3528387560157933,-1.9685251267387762,-2.3594356601259574
-1.376354987025805,-1.9510118209245513,-2.3585124889229396
-1.3996444895107143,-1.9332169389601868,-2.357588118764796
-1.422703969838496,-1.9151435319485097,-2.3566626923624354
-1.4455301779328553,-1.8967946872651196,-2.355736352257539
-1.4681199076096307,-1.878173527881911,-2.354809240799806
-1.490469996901658,-1.8592832116894693,-2.3538815001244306
-1.5125773283721853,-1.840126930818531,-2.3529532721298194
-1.5344388294168878,-1.8207079109607507,-2.352024698455546
-1.556051472554583,-1.8010294106889457,-2.3510959204605544
-1.5774122757067148,-1.7810947207770471,-2.350167079201603
-1.5985183024656988,-1.7609071635199394,-2.3492383154119634
-1.61936666235222,-1.7404700920533918,-2.3483097694803647
-1.639954511061569,-1.719786889674268,-2.3473815814301973
-1.66027905069912,-1.6988609691612058,-2.346453890898967
-1.6803375300050434,-1.677695772095947,-2.3455268371180082
-1.7001272445683684,-1.6562947681854954,-2.344600558892459
-1.7196455370304777,-1.6346614545852933,-2.3436751945814924
-1.7388897972781743,-1.612799355223561,-2.3427508820788114
-1.7578574626263965,-1.5907120201270026,-2.34182775879341
-1.776546017990728,-1.5684030247480105,-2.340905961630594
-1.7949529960497965,-1.545875969293548,-2.33998562697327
-1.8130759773976834,-1.523134478055866,-2.3390668906635033
-1.8309125906864812,-1.5001821987451902,-2.338149887984335
-1.8484605127590958,-1.477022801824548,-2.3372347536418743
-1.8657174687724374,-1.4536599798468692,-2.3363216217476563
-1.882681232311123,-1.4300974467944996,-2.335410625801266
-1.8993496254918198,-1.4063389374212547,-2.3345018986732313
-1.9157205190583475,-1.382388206597183,-2.33359557258819
-1.9317918324676961,-1.3582490286561066,-2.332691779108314
-1.9475615339670633,-1.33392519674613,-2.3317906491170133
-1.9630276406620755,-1.3094205221831718,-2.3308923128028978
-1.9781882185763007,-1.2847388338076957,-2.329996899644016
-1.9930413827022113,-1.2598839773447046,-2.3291045383923503
-2.007585297043729,-1.2348598147671264,-2.3282153570585855
-2.0218181746504817,-1.209670223662701,-2.327329482897141
-2.035738277643924,-1.1843190966044592,-2.326447042391464
-2.0493439172354546,-1.1588103405248824,-2.3255681612395893
-2.0626334537366837,-1.1331478760938427,-2.32469296433996
-2.075605296561965,-1.107335637100426,-2.32382157577751
-2.088257904223374,-1.0813775698386792,-2.322954118810002
-2.10058978431823,-1.05527763249742,-2.3220907158546296
-2.1125994935093537,-1.0290397945541212,-2.3212314884748726
-2.124285637498149,-1.0026680361730007,-2.320376557367605
-2.1356468709907026,-0.9761663476073428,-2.3195260423504616
-2.1466818976570106,-0.9495387286061261,-2.318680062349451
-2.1573894700834853,-0.9227891878250469,-2.3178387353868235
-2.1677683897188893,-0.8959217422419362,-2.317002178569178
-2.177817506813828,-0.8689404165766944,-2.316170508075828
-2.187535720353956,-0.8418492427157221,-2.315343839147396
-2.196921977987023,-0.8146522591409608,-2.31452228607466
-2.2059752759439135,-0.7873535103635207,-2.3137059621876364
-2.2146946589538112,-0.759957046361998,-2.3128949798448977
-2.223079220153634,-0.7324669220254539,-2.312089450423126
-2.231128100991869,-0.7048871966011491,-2.3112894843069016
-2.238840491126956,-0.677221933147011,-2.3104951908787155
-2.246215628320351,-0.649475197988882,-2.309706678509212
-2.2532527983243993,-0.6216510601825868,-2.3089240545476613
-2.2599513347651667,-0.5937535909807912,-2.3081474253126406
-2.2663106190203486,-0.5657868633047282,-2.30737689608295
-2.2723300800923987,-0.537754951220739,-2.3066125710887353
-2.278009194477001,-0.5096619294217039,-2.3058545535028245
-2.2833474860270244,-0.48151187271331536,-2.3051029454322833
-2.2883445258120765,-0.4533088555052216,-2.3043578479101696
-2.2929999319737933,-0.4250569513070464,-2.3036193608874975
-2.2973133695769863,-0.3967602322292761,-2.3028875832254077
-2.301284550456769,-0.36842276848899835,-2.3021626126875296
-2.3049132330617907,-0.34004862792049423,-2.3014445459325468
-2.3081992222936916,-0.3116418754906934,-2.3007334785069515
-2.311142369342907,-0.2832065728194298,-2.3000295048379944
-2.3137425715209265,-0.254746777704546,-2.299332718226819
-2.315999772089133,-0.22626654365176205,-2.2986432108417807
-2.3179139600843377,-0.19776991940935296,-2.297961073711951
-2.319485170141105,-0.16926094850756082,-2.297286396720795
-2.3207134823110076,-0.14074366880273992,-2.296619268600031
-2.321599021878884,-0.11222211202621236,-2.2959597769236555
-2.322141959176243,-0.0837003033377996,-2.2953080081021486
-2.322342509391881,-0.05518226088398755,-2.2946640473768296
-2.322200932379848,-0.026671995360700626,-2.2940279788143942
-2.32171753246484,0.0018264904193292634,-2.2933998853015987
-2.3208926582451266,0.030309201954686657,-2.2927798485401087
-2.3197267023931074,0.05877215347886462,-2.292167949041499
-2.31822010145359,0.08721136837943148,-2.291564266122405
-2.3163733356398826,0.11562287961275075,-2.2909688778998265
-2.3141869286277923,0.14400273011434972,-2.29038186128657
-2.3116614473476127,0.17234697320495956,-2.2898032919868374
-2.308797501774192,0.20065167299226808,-2.2892332444919563
-2.3055957447151587,0.22891290476844137,-2.2886717920762405
-2.302056871597387,0.2571267554034733,-2.288119006792989
-2.2981816202517864,0.28528932373440735,-2.2875749594706125
-2.293970770696485,0.31339672095046084,-2.2870397197088903
-2.289425144918483,0.341445070974157,-2.2865133558753508
-2.2845456066538476,0.36943051083845546,-2.285995935101769
-2.2793330611665232,0.39734919106000355,-2.2854875232807954
-2.3067493208430156,0.43136094102728434,-2.3181114023062523
-2.300366687592782,0.45945297444073835,-2.317189230472565
-2.29365728141207,0.4874565704750061,-2.3162823744073107
-2.2866223683533784,0.5153681492987655,-2.3153909354250395
-2.2792632482840953,0.543184150242112,-2.31451501284543
-2.2715812545906098,0.5709010319767883,-2.313654703996497
-2.263577753885426,0.5985152726920383,-2.3128101042178715
-2.2552541457173354,0.6260233702662059,-2.31198130686414
-2.246611862284671,0.6534218424342768,-2.311168403308247
-2.237652368151714,0.6807072269514443,-2.310371482944944
-2.2283771599682662,0.7078760817529071,-2.3095906331942766
-2.2187877661924458,0.7349249851099825,-2.3088259395051147
-2.2088857468167147,0.7618505357827268,-2.308077485358702
-2.198672693097187,0.7886493531691865,-2.3073453522722334
-2.1881502272862288,0.8153180774514136,-2.306629619802439
-2.177320002368377,0.841853369738399,-2.3059303655491847
-2.1661837017995946,0.8682519122060696,-2.3052476651590674
-2.1547430392498677,0.8945104082344859,-2.3045815923290034
-2.142999758349176,0.9206255825423595,-2.3039322188098152
-2.1309556324368177,0.9465941813190744,-2.3032996144097924
-2.118612464314121,0.9724129723542954,-2.3026838469982307
-2.105972086000512,0.9980787451653581,-2.3020849825089456
-2.0930363584929763,1.0235883111225228,-2.3015030849437492
-2.079807171528872,1.0489385035722676,-2.300938216375889
-2.0662864433521055,1.0741261779587445,-2.3003904369534394
-2.05247612048266,1.0991482119435152,-2.299859804902647
-2.038378177489459,1.1240015055237171,-2.299346376531216
-2.0239946167665424,1.1486829811487895,-2.29885020623154
-2.00932746831254,1.1731895838358886,-2.298371346483866
-1.9943787895134313,1.1975182812841,-2.297909847859389
-1.9791506649285362,1.2216660639876191,-2.2974657590232757
-1.9636452060797478,1.245629945347971,-2.29703912673761
-1.9478645512439359,1.2694069617854526,-2.296629995864258
-1.9318108652485249,1.2929941728498662,-2.2962384093676493
-1.915486339270178,1.3163886613307043,-2.295864408317466
-1.8988931906365631,1.3395875333668974,-2.2955080318912415
-1.882033662631173,1.3625879185562195,-2.2951693173768657
-1.8649100243011154,1.3853869700645178,-2.2948483001749893
-1.8475245702678764,1.4079818647348217,-2.2945450138013253
-1.8298796205409593,1.430369803196507,-2.294259489888849
-1.8119775203343926,1.4525480099745742,-2.2939917581898865
-1.7938206398860053,1.4745137335991931,-2.293741846578096
-1.7754113742794664,1.4962642467155938,-2.2935097810503366
-1.7567521432689723,1.517796846194435,-2.293295585728419
-1.7378453911065737,1.539108853242734,-2.293099282860745
-1.7186935863720403,1.5601976135154771,-2.2929208928238185
-1.6992992218052116,1.5810604972280198,-2.2927604341236485
-1.679664814140777,1.60169489926934,-2.292617923397017
-1.6597929039453865,1.6220982393163044,-2.292493375412632
-1.6396860554570543,1.6422679619489724,-2.2923868030721484
-1.6193468564267435,1.6622015367671061,-2.2922982174110684
-1.5987779179620973,1.681896458507913,-2.2922276275995097
-1.5779818743731866,1.7013502471651645,-2.2921750409428445
-1.5569613830202558,1.7205604481097418,-2.292140462882215
-1.5357191241633148,1.739524632211728,-2.292123896994912
-1.514257800813557,1.7582403959640969,-2.2921253449946266
-1.4925801385864703,1.7767053616081145,-2.2921448067315713
-1.4706888855565696,1.7949171772605197,-2.2921822801924696
-1.4485868121136731,1.8128735170425463,-2.2922377615004126
-1.4262767108205985,1.830572081210904,-2.2923112449145893
-1.4037613962722246,1.8480105962907443,-2.292402722829883
-1.3810437049557767,1.8651868152107278,-2.2925121857763386
-1.3581264951122902,1.8820985174402256,-2.292639622418502
-1.335012646599098,1.8987435091287557,-2.2927850195546293
-1.3117050607532936,1.915119623247686,-2.292948362115769
-1.288206660256019,1.9312247197343058,-2.2931296331647166
-1.2645203889975143,1.9470566856382814,-2.2933288138948478
-1.2406492119427952,1.9626134352705993,-2.293545883628823
-1.2165961149978548,1.9778929103550251,-2.2937808198171736
-1.192364104876305,1.9928930801821292,-2.2940335980367634
-1.1581552659141523,1.9907649999362842,-2.275051462685275
-1.1337532160736257,2.005030655796714,-2.275282062817593
-1.1091804854848666,2.019006366123668,-2.275523014417501
-1.0844403878033373,2.0326901233164083,-2.2757742877495577
-1.0595362595998141,2.0460799545256476,-2.2760358517821886
-1.0344714600736333,2.0591739218965683,-2.2763076741887067
-1.009249370763794,2.0719701228115013,-2.2765897213483886
-0.9838733952579111,2.084466690132232,-2.2768819583476043
-0.9583469588989151,2.09666179244195,-2.277184348981014
-0.9326735084894396,2.1085536342868183,-2.2774968557528124
-0.9068565119938667,2.120140456417149,-2.27781943987805
-0.880899458237901,2.131420536028188,-2.2781520612840063
-0.8548058566056816,2.1423921870004694,-2.278494678611634
-0.828579236734294,2.153053760139748,-2.2788472492170726
-0.8022231482056824,2.163403643416459,-2.2792097291732265
-0.7757411602358345,2.1734402622047186,-2.279582073271419
