7.5252097287241,-10.638969267045422,-5.680994201514724
7.396324061395393,-10.733761176172221,-5.682713297410425
7.2661597230076,-10.826864706068994,-5.684365804980213
7.134739864036067,-10.91826102641136,-5.68595135804701
7.002087951749315,-11.007931657110348,-5.687469604765469
6.868227764197392,-11.095858474632664,-5.688920207762579
6.733183384050408,-11.18202371819851,-5.690302844272858
6.596979192290155,-11.266409995852863,-5.69161720626805
6.459639861757852,-11.349000290406114,-5.692863000581211
6.32119035056115,-11.429777965240104,-5.694039949025108
6.181655895343683,-11.508726769975633,-5.6951477885048085
6.041062004420584,-11.585830845997688,-5.696186271124407
5.899434450783476,-11.661074731834644,-5.697155164287794
5.756799264978584,-11.734443368387836,-5.698054250793375
5.613182727861693,-11.80592210400807,-5.69888332892269
5.468611363233865,-11.87549669941557,-5.69964221252285
5.323111930361849,-11.943153332460199,-5.700330731082728
5.176711416387238,-12.008878602718719,-5.700948729802845
5.02943702862859,-12.072659535926107,-5.701496069658907
4.881316186780732,-12.13448358823796,-5.701972627458918
4.732376515015627,-12.194338650321255,-5.702378295893861
4.582645833989223,-12.252213051270768,-5.702712983581862
4.4321521527588175,-12.308095562348653,-5.702976615105849
4.280923660615564,-12.361975400544768,-5.703169131044638
4.1289887188366965,-12.413842231955563,-5.703290487997449
3.9763758523623416,-12.46368617497932,-5.703340658601809
3.823113741401618,-12.5114978033259,-5.703319631544852
3.6692312129729325,-12.557268148839064,-5.703227411567989
3.5147572323833685,-12.600988704129794,-5.703064019464942
3.35972089465214,-12.64265142501904,-5.702829492073173
3.2041514158831053,-12.68224873278854,-5.702523882258674
3.048078124591393,-12.719773516238481,-5.702147258894156
2.8915304529892136,-12.75521913355096,-5.701699706830648
2.7345379282359525,-12.788579413958317,-5.7011813268625335
2.5771301636577117,-12.819848659215591,-5.70059223568604
2.4193368499413452,-12.84902164487649,-5.699932565851218
2.2611877463082823,-12.876093621372457,-5.699202465707459
2.1894646656133148,-13.433321674868333,-5.93350209709797
2.0258704819277766,-13.468606898930213,-5.937658724558797
1.8617038159908414,-13.501637625679326,-5.941700501150893
1.6630854689591876,-13.261970742312604,-5.8268089474045
1.4990646287802836,-13.27119246924573,-5.822339140451211
1.3350652777609164,-13.278359419030213,-5.817857091950321
1.1711136204072226,-13.283475185745397,-5.8133635476650225
1.0072357343870522,-13.286543701149233,-5.808859251966671
0.8434575661871438,-13.287569231002513,-5.804344947691949
0.6798049268704764,-13.286556371343746,-5.799821376002493
0.5163034879341116,-13.283510044717387,-5.795289276246999
0.35297877726755766,-13.278435496357972,-5.790749385825822
0.18985617521174913,-13.271338290332908,-5.78620244005811
0.02696091071861644,-13.262224305646352,-5.781649172051452
-0.13568194238882803,-13.251099732306901,-5.777090312574093
-0.2980474690560323,-13.237971067361533,-5.772526589929693
-0.4601109165362802,-13.222845110898332,-5.767958729834663
-0.6218476978301717,-13.205728962020546,-5.763387455298088
-0.7832333950254993,-13.186630014794313,-5.758813486504215
-0.9442437625379909,-13.16555595417258,-5.754237540697543
-1.1048547302532468,-13.142514751897558,-5.7496603320705075
-1.265042406570448,-13.117514662384037,-5.7450825716537475
-1.424783081348354,-13.09056421858594,-5.740504967208969
-1.584053228754196,-13.061672227848318,-5.735928223124402
-1.742829510016118,-13.030847767747112,-5.731353040312839
-1.9010887760798587,-12.99810018191878,-5.726780116112247
-2.058808070170434,-12.963439075882054,-5.722210144188974
-2.215964630259598,-12.926874312853858,-5.717643814443496
-2.2950318888266605,-12.46738809942955,-5.712591271571425
-2.445964331991952,-12.428688313664011,-5.708183407951077
-2.5962952713353094,-12.388174621932123,-5.703780817267642
-2.746003390137849,-12.345857337417128,-5.69938415233785
-2.895067566358522,-12.301747004754276,-5.694994062050527
-3.04346687456974,-12.255854396085404,-5.690611191288511
-3.191180587810244,-12.208190507118582,-5.686236180852905
-3.3381881793561705,-12.158766553194534,-5.681869667389618
-3.48446932441134,-12.107593965361431,-5.677512283318189
-3.63000390171781,-12.054684386459734,-5.673164656762874
-3.77477199508775,-12.00004966721859,-5.668827411485988
-3.9187538948577463,-11.943701862365328,-5.664501166823452
-4.061930099266614,-11.885653226749518,-5.660186537622555
-4.2042813157579495,-11.825916211483067,-5.655884134181891
-4.345788462208464,-11.764503460097666,-5.651594562193452
-4.486432668083381,-11.701427804721039,-5.647318422686851
-4.626195275520044,-11.636702262273213,-5.643056311975651
-4.765057840340985,-11.570340030684134,-5.638808821605777
-4.903002132997679,-11.502354485133832,-5.634576538305986
-5.040010139446234,-11.432759174316285,-5.630360043940346
-5.176064061956283,-11.361567816728192,-5.626159915462744
-5.311146319854384,-11.288794296983657,-5.6219767248733294
-5.445239550203154,-11.214452662155962,-5.617811039176932
-5.57832660841754,-11.13855711814728,-5.613663420343366
-5.7103905688194265,-11.061122026087462,-5.609534425269634
-5.841414725131984,-10.982161898762728,-5.605424605743969
-5.971382590915038,-10.901691397075162,-5.601334508411705
-6.100277899942806,-10.81972532653391,-5.597264674742931
-6.228084606525353,-10.736278633778841,-5.593215641001911
-6.354786885775069,-10.651366403137438,-5.589187938218209
-6.480369133819561,-10.5650038532157,-5.58518209215953
-6.604815967962262,-10.477206333523686,-5.581198623306206
-6.728112226792134,-10.387989321136397,-5.577238046827308
-6.85024297024378,-10.29736841739059,-5.573300872558356
-6.971193479609373,-10.205359344618074,-5.569387604980583
-7.090949257503666,-10.111977942916127,-5.5654987432017355
-7.20949602778347,-10.017240166955387,-5.561634780938346
-7.326819735422955,-9.921162082825827,-5.557796206499481
-7.442906546346055,-9.823759864921149,-5.553983502771908
-7.557742847217363,-9.725049792862059,-5.550197147206644
-7.671315245192796,-9.625048248458715,-5.546437611806865
-7.783610567631364,-9.52377171271276,-5.542705363117139
-7.894615861769374,-9.42123676285917,-5.539000862213942
-8.004318394358318,-9.317460069448193,-5.535324564697419
-8.112705651267794,-9.212458393467655,-5.531676920684379
-8.219765337054714,-9.106248583505744,-5.528058374802458
-8.325485374500092,-8.99884757295454,-5.524469366185439
-8.429853904114644,-8.890272377254353,-5.520910328469687
-8.532859283614485,-8.780540091179017,-5.5173816897916605
-8.634490087368178,-8.669667886162193,-5.513883872786479
-8.7347351058163,-8.557673007664768,-5.5104172945875
-8.833583344864845,-8.44457277258333,-5.506982366826868
-8.931024025253556,-8.330384566699742,-5.50357949563703
-9.027046581900477,-8.215125842171789,-5.500209081653147
-9.121640663223829,-8.098814115064812,-5.496871520016394
-9.214796130442455,-7.981466962924263,-5.493567200378112
-9.306503056855885,-7.863102022389092,-5.490296506904765
-9.396751727105253,-7.743736986845803,-5.4870598182836945
-9.48553263641611,-7.623389604123038,-5.4838575077296134
-9.572836489824315,-7.5020776742265385,-5.480689942991833
-9.658654201386014,-7.379819047114206,-5.477557486362166
-9.742976893372827,-7.256631620511135,-5.474460494683489
-9.825795895453332,-7.132533337764324,-5.4713993193589525
-9.907102743861802,-7.007542185736793,-5.468374306361754
-9.986889180555295,-6.881676192740851,-5.465385796245504
-10.065147152360064,-6.75495342651022,-5.462434124155118
-10.141868810108328,-6.627391992210615,-5.459519619838223
-10.217046507766296,-6.499010030488565,-5.456642607657029
-10.290672801554496,-6.36982571555802,-5.4538034066006675
-10.362740449061258,-6.239857253324385,-5.451002330297939
-10.433242408350369,-6.109122879545653,-5.448239687030459
-10.502171837063704,-5.977640858030127,-5.445515779746172
-10.56952209151981,-5.845429478870406,-5.442830906073199
-10.635286725809241,-5.712507056713127,-5.440185358334004
-10.699459490887545,-5.578891929064061,-5.43757942355984
-10.762034333666714,-5.444602454628044,-5.435013383505462
-10.823005396105902,-5.30965701168335,-5.432487514664067
-10.882367014302247,-5.174073996489871,-5.430002088282451
-10.940113717582514,-5.037871821730765,-5.427557370376344
-10.996240227596408,-4.9010689149869355,-5.425153621745912
-11.050741457412178,-4.763683717243859,-5.422791097991393
-11.103612510615374,-4.625734681430216,-5.4204700495288405
-11.154848680411362,-4.487240270987779,-5.418190721605976
-11.204445448732315,-4.348218958471981,-5.41595335431808
-11.252398485349364,-4.208689224182614,-5.41375818262396
-11.298703646990568,-4.068669554824063,-5.411605436361924
-11.343356976465282,-3.928178442194512,-5.40949534026576
-11.386354701795625,-3.7872343819034597,-5.407428113980702
-11.427693235355552,-3.645855872117034,-5.405403972079353
-11.467369173018193,-3.5040614123304223,-5.403423124077561
-11.50537929331198,-3.361869502166812,-5.401485774450201
-11.541720556586096,-3.2192986402022337,-5.399592122646875
-11.576390104185803,-3.0763673228156496,-5.397742363107493
-11.60938525763815,-2.9330940430636536,-5.395936685277716
-11.640703517848548,-2.7894972895791685,-5.394175273624262
-11.67034256430866,-2.6455955454934013,-5.392458307650026
-11.698300254316136,-2.501407287380512,-5.390785961909036
-11.72457462220655,-2.3569509842242553,-5.38915840602119
-12.038831850642628,-2.2667865563228426,-5.520402972109574
-12.048057919037936,-2.1157753068928993,-5.51231188711524
-12.055348289574702,-1.9648721106013716,-5.504200217692255
-12.06071022596672,-1.8141027517709445,-5.4960694661914475
-12.06415133176797,-1.6634927698197157,-5.4879211262834175
-12.065679543170381,-1.5130674551515138,-5.479756682636441
-12.065303121785373,-1.3628518452500933,-5.471577610605253
-12.063030647414696,-1.2128707209753535,-5.463385375930669
-12.05887101081594,-1.063148603059463,-5.4551814344500205
-12.052833406467908,-0.9137097488008413,-5.446967231818344
-12.044927325341012,-0.7645781489536312,-5.438744203240291
-12.035162547677636,-0.6157775248102768,-5.430513773212667
-12.02354913578729,-0.46733132547468914,-5.422277355277548
-12.010097426861286,-0.3192627253233614,-5.414036351785904
-11.99481802581146,-0.17159462165170628,-5.405792153671607
-11.977721798137374,-0.024349632502784012,-5.397546140235775
-11.958819862826259,0.12244990532449292,-5.389299678941309
-11.938123585289866,0.26878193809068673,-5.38105412521756
-11.915644570342172,0.41462469675774005,-5.372810822274971
-11.891394655221827,0.5599566984606894,-5.364571100929606
-11.865385902663016,0.7047567478122985,-5.356336279437418
-11.837630594018346,0.849003938043969,-5.348107663338156
-11.808141222437108,0.9926776519862274,-5.339886545308738
-11.776930486102296,1.1357575628921814,-5.33167420502599
-11.744011281529412,1.2782236351073661,-5.323471909038579
-11.709396696930156,1.4200561245894523,-5.315280910647997
-11.673100005643796,1.5612355792813195,-5.307102449798467
-11.635134659638977,1.7017428393410206,-5.298937752975585
-11.595514283088551,1.8415590372321768,-5.290788033113551
-11.55425266601988,1.980665597678444,-5.2826544895108505
-11.511363758042945,2.1190442374855456,-5.274538307754181
-11.466861662158427,2.2566769652345533,-5.266440659650492
-11.581593111570552,2.4272531141807923,-5.332413421604828
-11.54717343658644,2.568357671465675,-5.330676962329601
-11.510980950274257,2.7089703269975067,-5.328915326811184
-11.473023390395776,2.849068331864835,-5.327128831112307
-11.433308798052252,2.988629074022855,-5.325317795167093
-11.391845514898511,3.127630082583869,-5.323482542699553
-11.348642180291435,3.2660490320436453,-5.321623401141545
-11.3037077283745,3.403863746442542,-5.319740701550202
-11.257051385099993,3.541052203460454,-5.317834778524898
-11.208682665190622,3.6775925384444865,-5.315905970123756
-11.158611369042168,3.81346304836849,-5.313954617779755
-11.106847579568916,3.94864219572353,-5.311981066216462
-11.053401658993554,4.0831086123384335,-5.309985663363428
-10.99828424558329,4.216841103129636,-5.307968760271285
-10.941506250333905,4.349818649779536,-5.305930711026568
-10.883078853603498,4.4820204143426725,-5.303871872666316
-10.823013501697684,4.613425742779044,-5.301792605092463
-10.761321903407973,4.744014168413954,-5.299693270986075
-10.698016026505154,4.8737654153237955,-5.297574235721456
-10.633108094189367,5.0026594016473,-5.295435867280147
-10.566610581498715,5.130676242821681,-5.29327853616488
-10.49853621167813,5.257796254743309,-5.291102615313489
-10.428897952510308,5.383999956852495,-5.288908480012821
-10.35770901261042,5.509268075142039,-5.286696507812692
-10.284982837686456,5.633581545089247,-5.284467078439911
-10.210733106766849,5.7569215145111405,-5.2822205737123715
-10.134973728397265,5.879269346342686,-5.27995737745332
-10.057718836808192,6.000606621337813,-5.277677875405736
-9.978982788055148,6.120915140693138,-5.27538245514693
-9.898780156133226,6.240176928594317,-5.273071506003349
-9.817125729067659,6.358374234684917,-5.2707454189656175
-9.734034504982215,6.4754895364579,-5.2684045866038804
-9.649521688147008,6.5915055415696475,-5.266049402983417
-9.563602685007515,6.706405190076727,-5.26368026358061
-9.476293100196422,6.820171656595391,-5.261297565199248
-9.387608732529978,6.932788352384083,-5.258901705887237
-9.297565570990495,7.0442389273490535,-5.256493084853694
-9.206179790696657,7.15450727197337,-5.2540721023864885
-9.113467748863208,7.263577519169577,-5.2516391597702405
-9.019445980751652,7.371434046056308,-5.249194659204794
-8.924131195613498,7.478061475659189,-5.246739003724198
-8.827540272627678,7.583444678536426,-5.244272597116217
-8.729690256833589,7.687568774329454,-5.241795843842385
-8.630598355061357,7.790419133239122,-5.239309148958636
-8.53028193186076,7.8919813774278635,-5.236812918036518
-8.428758505430281,7.99224138234838,-5.23430755708503
-8.326045743547812,8.09118527799936,-5.231793472473071
-8.222161459504326,8.188799450108787,-5.229271070852563
-8.117123608042,8.285070541245455,-5.226740759082214
-8.01095028129814,8.379985451859323,-5.224202944151996
-7.903659704756235,8.473531341251299,-5.221658033108291
-7.795270233205498,8.56569562847321,-5.219106432979792
-7.685800346710178,8.656465993158593,-5.216548550704106
-7.575268646589907,8.745830376285063,-5.213984793055127
-7.463693851412331,8.833776980869013,-5.211415566571161
-7.351094792999256,8.920294272593388,-5.2088412774838355
-7.2374904124474595,9.005370980369362,-5.206262331647785
-7.122899756165385,9.088996096832695,-5.203679134471165
-7.007341971926778,9.171158878775657,-5.201092090846948
-6.890836304942448,9.25184884751528,-5.198501605085068
-6.773402093951147,9.331055789198937,-5.195908080845394
-6.655058767330679,9.40876975504801,-5.193311921071543
-6.535825839230226,9.484981061540635,-5.190713527925561
-6.297713517034642,9.383841644798467,-5.092684293661417
-6.1631685272562855,9.431469683925013,-5.077101148456683
-6.028586785857662,9.477497538587839,-5.061669910547298
-5.89398419082114,9.521934431758918,-5.046390983640098
-5.759376327826844,9.56478964353553,-5.031264740442748
-5.624778474885149,9.60607250481636,-5.016291523653731
-5.490205607006111,9.645792391179189,-5.001471646935804
-5.3556724009006675,9.683958716956672,-4.986805395872893
-5.221193239708683,9.720580929506816,-4.972293028910317
-5.086782217749167,9.755668503674542,-4.957934778278329
-4.952453145288136,9.789230936440843,-4.943730850898934
-4.818219553319865,9.821277741755905,-4.929681429275987
-4.684094698357464,9.851818445552663,-4.915786672368588
-4.550091567228862,9.880862580937112,-4.9020467164478125
-4.416222881874535,9.908419683551818,-4.888461675936803
-4.282501104143482,9.93449928710899,-4.87503164423432
-4.148938440584101,9.959110919089508,-4.861756694521801
-4.015546847226844,9.98226409660433,-4.848636880554033
-3.882338034355654,10.003968322414666,-4.835672237433548
-3.7493234712653876,10.024233081107377,-4.822862782368831
-3.616514391002562,10.043067835422052,-4.810208515416505
-3.4839217950869252,10.060482022726251,-4.797709420207602
-3.3515564582114985,10.076485051635435,-4.785365464658062
-3.2194289329189036,10.091086298774096,-4.773176601663645
-3.087549554251873,10.104295105674735,-4.7611427697793856
-2.955928444376031,10.116120775811243,-4.749263893883771
-2.8245755171731477,10.126572571763395,-4.737539885827824
-2.693500482803163,10.135659712509156,-4.725970645069278
-2.5627128522334246,10.143391370841512,-4.714556059291998
-2.432221941733713,10.149776670906666,-4.703296005010876
-2.3020368773356887,10.154824685860458,-4.69219034816239
-2.1721665992555566,10.158544435639849,-4.681238944681009
-2.042619866278796,10.160944884846467,-4.670441641061668
-1.9134052601059477,10.162034940739202,-4.659798274908501
-1.7845311896585012,10.161823451332884,-4.6493086754700474
-1.6560058953440586,10.160319203600224,-4.63897266416117
-1.5278374532799788,10.157530921774068,-4.628790055071835
-1.4000337794748603,10.153467265747302,-4.618760655463023
-1.272602633967236,10.148136829567633,-4.60888426624998
-1.1455516249209592,10.141548140024556,-4.599160682472974
-1.0188882126768264,10.13370965532597,-4.58958969375584
-0.8926197137600573,10.12462976386182,-4.5801710847524815
-0.766753304843293,10.114316783052352,-4.570904635581564
-0.641296026664865,10.10277895827846,-4.561790122249604
-0.5162547879021235,10.090024461891824,-4.552827317062667
-0.3916363689996879,10.0760613923025,-4.544015989026918
-0.26744742595251314,10.060897773141692,-4.535355904238169
-0.14369449404373397,10.044541552497476,-4.526846826260703
-0.020383991537292263,10.027000602221438,-4.518488516495546
0.10247777667461447,10.008282717304002,-4.510280734538391
0.22488461546916336,9.98839561531652,-4.50222323852739
0.34683043593549623,9.967346935918092,-4.494315785481017
0.46830925186209366,9.94514424042523,-4.48655813162619
0.5893151762687415,9.92179501144251,-4.478950032716861
0.7098424179828446,9.89730665255232,-4.4714912443432455
0.8298852782598336,9.871686488062082,-4.46418152223192
0.9494381474473614,9.84494176280716,-4.45702062253695
1.0684955016929756,9.8170796420078,-4.450008302122231
1.1870518996949129,9.78810721117854,-4.443144318835236
1.3051019794956595,9.75803147608858,-4.436428431772362
1.42264045531787,9.726859362771496,-4.429860401536014
1.5396621144422489,9.694597717583017,-4.423439990483644
1.6561618141269572,9.661253307305321,-4.41716696296887
1.7721344785681068,9.626832819296629,-4.411041085574896
1.8875750959008726,9.59134286168471,-4.4050621273403285
2.0024787152407577,9.554789963603106,-4.399229859977622
2.1168404437645165,9.517180575468833,-4.3935440580842355
2.2306554438302517,9.478521069300447,-4.388004499346725
2.3439189301361574,9.438817739075331,-4.382610964737861
2.459092752223148,9.407512977639064,-4.381758347734055
2.5758088029796116,9.381933024258958,-4.384237532549084
2.692338407619445,9.355152025139724,-4.386832816412031
2.808672688393968,9.327169810323436,-4.3895442152752
2.92480272406687,9.297986209840667,-4.392371745089658
3.040719548057573,9.267601054692989,-4.395315421710161
3.156414146590985,9.236014177880746,-4.398375260795698
3.2718774568540545,9.203225415476462,-4.401551277705616
3.3871003651595606,9.169234607744299,-4.404843487391306
3.5020737051175868,9.13404160030598,-4.408251904283383
3.61678825581516,9.097646245353594,-4.411776542174352
3.731234740004536,9.060048402909722,-4.415417414096683
3.8454038223006397,9.021247942135348,-4.419174532196271
3.9592861073882175,8.981244742686005,-4.423047907601245
4.072872138239238,8.940038696116638,-4.427037550286054
4.186152394341136,8.897629707335641,-4.431143468930806
4.299117289936505,8.854017696108603,-4.435365670775798
4.411757172274865,8.809202598612229,-4.439704161471204
4.524062319877183,8.763184369038955,-4.444158944921857
4.636022940813815,8.715962981252805,-4.448730023127079
4.7476291709965786,8.66753843049694,-4.453417396015509
4.858871072485745,8.617910735153538,-4.458221061274888
4.969738631812662,8.567079938556443,-4.463141014176725
5.0802217583188645,8.515046110857199,-4.468177247395818
5.19031028251249,8.461809350944966,-4.4733297508245595
5.299993954442856,8.407369788420908,-4.478598511381973
5.409262442094136,8.351727585627586,-4.48398351281745
5.518105329799037,8.294882939733913,-4.489484735509089
5.626512116673475,8.236836084876247,-4.495102156256641
5.734472215073251,8.177587294356146,-4.500835748068948
5.841974949073771,8.117136882895382,-4.506685479945872
5.949009552973896,8.05548520894873,-4.512651316654626
6.055565169825048,7.992632677075108,-4.518733218500463
6.161630849986736,7.928579740367628,-4.524931141091689
6.2671955497096965,7.863326902943035,-4.531245035098912
6.372248129747908,7.79687472249114,-4.537674846008513
6.476777354000753,7.729223812884763,-4.544220513870256
6.580771888186665,7.660374846850653,-4.550881973039016
6.684220298549637,7.590328558701933,-4.557659151910549
6.787111050600005,7.519085747132578,-4.564551972651277
6.88943250789098,7.446647278074344,-4.571560350922026
6.991172930832421,7.373014087616691,-4.578684195595697
7.092320475543436,7.29818718499009,-4.585923408468782
7.192863192745392,7.222167655613146,-4.5932778839667385
7.292789026697005,7.144956664203994,-4.600747508843145
7.3920858141732,7.066555457956289,-4.608332161872602
7.490741283489505,6.986965369780202,-4.616031713537375
7.588743053573792,6.906187821608725,-4.623846025707701
7.68607863308719,6.824224327769617,-4.631774951315773
7.782735419596121,6.741076498423232,-4.6398183340233405
7.878700698797369,6.656746043066526,-4.6479760078829315
7.973961643798248,6.571234774103402,-4.6562477969926555
8.068505314453892,6.4845446104815885,-4.664633515144574
8.162318656763796,6.396677581396172,-4.673132965466637
8.255388502329803,6.307635830059908,-4.68174594005817
8.347701567877733,6.217421617540308,-4.690472219618898
8.439244454844957,6.126037326663522,-4.6993115730715225
8.530003649036244,6.0334854659849935,-4.708263757177854
8.619965520350263,5.93976867382673,-4.7173285161484895
8.709116322579208,5.844889722381079,-4.726505581246087
8.797442193284011,5.74885152188076,-4.735794670382219
8.884929153747741,5.651657124834894,-4.745195487707865
8.97156310900973,5.55330973033068,-4.754707723197553
9.057329847983183,5.453812688400303,-4.764331052227203
9.142215043658874,5.353169504452611,-4.774065135145713
9.226204253397785,5.251383843768981,-4.7839096168403445
9.309282919315462,5.148459536062775,-4.793864126295966
9.39143636876097,5.04440058010163,-4.803928276148225
9.47264981489336,4.939211148391844,-4.814101662230726
9.552908357358618,4.832895591923899,-4.824383863116299
9.632196983070138,4.725458444978229,-4.834774439652456
9.71050056709572,4.616904429990096,-4.845272934491128
9.78780387365429,4.507238462472434,-4.855878871612816
9.864091557225416,4.396465655995393,-4.866591755845265
9.939348163774852,4.284591327221195,-4.8774110723767885
10.013558132099348,4.171621000992804,-4.888336286264399
10.086705795293982,4.057560415474846,-4.899366841936905
10.158775382345336,3.94241552734501,-4.910502162693123
10.229751019853845,3.826192517034132,-4.921741650195396
10.299616733888701,3.708897794012953,-4.9330846839586
10.368356451978709,3.590538002123486,-4.944530620834855
10.435954005242523,3.471120024952744,-4.956078794494139
10.502393130661702,3.3506509912464644,-4.967728514901057
10.56765747350004,3.2291382803603024,-4.979479067787973
10.63173058987269,3.1065895277458533,-4.9913297141248085
10.69459594946851,2.983012630468679,-5.003279689585733
10.756236938429195,2.8584157527553846,-5.015328204013075
10.816636862388613,2.732807331566604,-5.027474440878716
10.875778949675913,2.6061960821926564,-5.039717556743321
10.933646354685857,2.4785910038683285,-5.052056680713713
10.990222161419842,2.350001385403276,-5.064490913898764
11.045489387201089,2.2204368108241597,-5.077019328864136
11.099430986567418,2.089907165024586,-5.089640969086309
11.136105597457785,1.9556261595341362,-5.095069070346808
11.174086058551907,1.821237307336463,-5.101835752782154
11.210511192517258,1.6862206969635112,-5.1086334976307715
11.245369546729556,1.5505931930475911,-5.115461453625294
11.278649807327911,1.4143718885007508,-5.122318758068195
11.310340803795343,1.2775741047920706,-5.1292045368193016
11.340431513602235,1.1402173921378693,-5.1361179042876905
11.368911066911593,1.0023195296021756,-5.143057963428126
11.395768751344677,0.8638985251049787,-5.150023805742144
11.420994016805677,0.7249726153356074,-5.157014511283929
11.444576480363933,0.5855602655686868,-5.164029148671103
11.466505931192112,0.4456801693800813,-5.171066775100559
11.486772335558667,0.30535124826026333,-5.178126436369464
11.505365841872894,0.16459265112253346,-5.185207166901578
11.52227678578063,0.02342375370354355,-5.1923079897789775
11.537495695308785,-0.11813584214641777,-5.199427916779361
11.55101329605658,-0.2600663092859059,-5.206565948419015
11.562820516431422,-0.40234759622003935,-5.213721074001607
11.572908492927182,-0.5449594281560134,-5.220892271672891
11.581268575442602,-0.6878813081787625,-5.228078508481485
11.587892332637322,-0.8310925185492687,-5.235278740445807
11.592771557323175,-0.9745721221278838,-5.242491912627322
11.595898271888,-1.118298963925018,-5.249716959210188
11.597264733749363,-1.2622516727815207,-5.256952803587435
11.596863440835376,-1.4064086631810182,-5.264198358453786
11.59468713708967,-1.5507481371964371,-5.271452525905232
11.590728817997599,-1.6952480865729005,-5.278714197545462
11.584981736130503,-1.8398862949490713,-5.285982254599259
11.577439406704915,-1.984640340219101,-5.293255568032974
11.568095613153359,-2.1294875970370657,-5.300532998682159
11.556944412703396,-2.274405239465911,-5.307813397386466
11.543980141961413,-2.419370243772732,-5.31509560513191
11.529197422497575,-2.564359391372189,-5.322378453200568
11.51259116642826,-2.7093492719197574,-5.329660763327811
11.494156581992256,-2.85431628655646,-5.336941347867155
11.473889179116775,-2.9992366513066075,-5.344219009962794
11.451784774969397,-3.1440864006299947,-5.351492543729885
11.427839499491881,-3.2888413911299383,-5.358760734442677
11.402049800911707,-3.4334773054183407,-5.366022358730507
11.374412451227139,-3.5779696561390515,-5.373276184781759
11.344924551661485,-3.7222937901504385,-5.380520972555808
11.313583538082238,-3.866424892868191,-5.387755474003007
11.280387186380516,-4.0103379927691325,-5.394978433292751
11.245333617806418,-4.154007966056764,-5.40218858704967
11.208421304255516,-4.297409541489068,-5.409384664597944
11.169649073501967,-4.44051730536907,-5.416565388213796
11.129016114373323,-4.583305706698418,-5.42372947338615
11.086521981862386,-4.725749062494178,-5.430875629085478
11.042166602171118,-4.8678215632688895,-5.438002558040837
11.190779495326797,-5.098256904804434,-5.541586868556054
11.135236771630952,-5.23890065178681,-5.545502939387422
11.077849022601288,-5.378910897061215,-5.549380286700559
11.01862241027575,-5.518261829371558,-5.553218151241944
10.957563492662105,-5.656927667750417,-5.557015778706482
10.894679224779699,-5.794882668446862,-5.560772419968416
10.829976959563254,-5.932101131912191,-5.564487331312694
10.763464448626468,-6.0685574098404835,-5.568159774666671
10.695149842883216,-6.204225912260829,-5.571789017832021
10.625041693024217,-6.339081114677945,-5.575374334716733
10.553148949847234,-6.473097565257851,-5.578915005567065
10.479480964438709,-6.606249892055246,-5.5824103171993436
10.40404748820514,-6.73851281027899,-5.585859563231437
10.32685867275229,-6.869861129592241,-5.589262044313828
10.247925069610652,-7.000269761443541,-5.592617068360105
10.167257629805505,-7.129713726425181,-5.595923950776771
10.084867703270126,-7.258168161655052,-5.599182014692204
10.000767038100772,-7.385608328178186,-5.60239059118467
9.914967779652107,-7.512009618384048,-5.6055490195092235
9.827482469471953,-7.637347563435675,-5.608656647323367
9.738324044074218,-7.761597840706609,-5.611712830911328
9.647505833549165,-7.884736281221622,-5.614716935406828
9.555041560010013,-8.006738877097062,-5.617668335014184
9.460945335875296,-8.127581788976746,-5.620566413227619
9.36523166198628,-8.247241353459135,-5.623410563048641
9.267915425558922,-8.36569409051163,-5.6262001872013325
9.169011897970071,-8.48291671086768,-5.62893469834544
9.068536732377622,-8.598886123402442,-5.6316135192871055
8.966505961174462,-8.713579442482638,-5.634236083187097
8.862935993276276,-8.826973995286322,-5.636801833766418
8.757843611243276,-8.939047329088163,-5.639310225509151
8.651245968236116,-9.049777218505884,-5.641760723862387
8.54316058480643,-9.159141672703464,-5.6441528054331185
8.433605345522396,-9.267118942546748,-5.646485958181965
8.322598495430116,-9.373687527707043,-5.648759681613582
8.210158636351405,-9.478826183708343,-5.6509734869636326
8.096304723019065,-9.582513928913789,-5.653126897382196
7.981056059050566,-9.684730051447005,-5.655219448113468
7.8644322927613555,-9.785454116043967,-5.657250686671647
7.746453412819075,-9.884665970831064,-5.659220173012863
7.627139743740131,-9.98234575402507,-5.661127479703042
7.506511941230164,-10.078473900550737,-5.662972192081573
7.384590987370125,-10.173031148571768,-5.664753908420666
7.261398185649778,-10.265998545930993,-5.66647224008029
7.136955155850588,-10.357357456495572,-5.6681268116585715
7.011283828780063,-10.4470895664031,-5.6697172611375395
6.884406440859756,-10.53517689020462,-5.671243240024124
6.7563455285692875,-10.621601776900457,-5.672704413486298
6.6271239227488,-10.706346915865005,-5.674100460484252
6.496764742762488,-10.789395342656555,-5.675431073896518
6.36529139052581,-10.87073044470836,-5.676695960640948
6.232727544399312,-10.950335966897217,-5.677894841790442
6.099097152951893,-11.028196016985902,-5.679027452683358
5.964424428596627,-11.104295070935887,-5.680093543028508
5.828733841102275,-11.178617978086852,-5.681092877004663
5.692050110983744,-11.251149966199577,-5.682025233354498
5.554398202774909,-11.321876646358943,-5.682890405472899
5.4158033181871845,-11.390784017733793,-5.683688201489562
5.276290889157535,-11.457858472190567,-5.6844184443458365
5.135886570789506,-11.523086798757706,-5.685080971865735
4.9946162341910725,-11.586456187937905,-5.685675636821069
4.85250595921316,-11.647954235865468,-5.686202306990649
4.709582027092775,-11.70756894830604,-5.686660865213523
4.565870913004754,-11.76528874449619,-5.687051209436188
4.4213992785262475,-11.82110246082042,-5.68737325275375
4.2761939640180975,-11.874999354323222,-5.687626923445012
4.1302819809273865,-11.926969106054058,-5.687812165001433
3.9836905040153896,-11.977001824243168,-5.687928936149975
3.8364468635153948,-12.025088047306252,-5.687977210869785
3.6885785372247737,-12.071218746676257,-5.687956978402719
3.5401131425357684,-12.11538532946054,-5.687868243257687
3.391078428409574,-12.15757964092196,-5.68771102520884
3.241502267298239,-12.197793966782367,-5.687485359287563
3.091412647019044,-12.236021035347372,-5.687191295768317
2.9408376625859787,-12.272254019451138,-5.686828900148317
2.7898055080030018,-12.306486538220279,-5.686398253121065
2.6383444680237997,-12.338712658656025,-5.685899450543775
2.486482909882779,-12.36892689703389,-5.685332603398691
2.3342492750019717,-12.397124220120377,-5.68469783774835
2.2659685435142514,-12.903317363633292,-5.903616181524461
2.108916361418128,-12.939122660098667,-5.90771166885751
1.9512903620825541,-12.97277543999383,-5.9116978728168945
1.7931223710699957,-13.004264300656661,-5.91557373782449
1.6344444757432208,-13.033578382959817,-5.919338234299181
1.475289014412855,-13.060707378551916,-5.922990359199259
1.3156885652623445,-13.085641536840386,-5.926529136553804
1.1322074525282215,-12.842178025002402,-5.809533170813385
0.9737989042185857,-12.845475250046688,-5.805181271865127
0.8154786570747106,-12.846798163502365,-5.800819478167201
0.6572716434908676,-12.846151002066863,-5.796448504383123
0.4992026662163018,-12.843538318068045,-5.792069063569375
0.34129639442997767,-12.838964975910843,-5.7876818670448715
0.18357735990910207,-12.832436148482577,-5.783287624262738
0.026069953291466032,-12.82395731351944,-5.7788870426844525
-0.13120157956840633,-12.813534249936449,-5.774480827656334
-0.2882131411493744,-12.801173034123385,-5.770069682288423
-0.4449407857201947,-12.786880036208895,-5.765654307335729
-0.601360722702625,-12.770661916295264,-5.761235401081883
-0.7574493199413315,-12.752525620666013,-5.7568136592251955
-0.913183106880982,-12.732478377968645,-5.752389774767112
-1.0685387776507644,-12.710527695374806,-5.7479644379030885
-1.2234931940568234,-12.686681354720033,-5.743538335915882
-1.3780233884830329,-12.660947408625251,-5.73911215307125
-1.5321065667006166,-12.633334176602222,-5.734686570516081
-1.6857201105871706,-12.603850241144988,-5.730262266178919
-1.8388415807556815,-12.572504443809423,-5.7258399146729095
-1.9914487190941912,-12.539305881282937,-5.7214201872011525
-2.1435194512167866,-12.504263901446295,-5.717003751464446
-2.22164971389644,-12.06875134893846,-5.712126818256185
-2.3678146065596652,-12.031585802195536,-5.707860134902231
-2.5134043377765747,-11.992662073402755,-5.703598345433007
-2.6583982057626283,-11.95198997651037,-5.699342082573087
-2.8027756932222316,-11.909579551700464,-5.695091975367767
-2.946516469291832,-11.865441061655572,-5.690848649106128
-3.089600391404667,-11.819584987829947,-5.686612725246268
-3.2320075070780536,-11.772022026725127,-5.682384821342712
-3.373718055624112,-11.72276308617127,-5.678165550975953
-3.5147124697848673,-11.671819281615923,-5.673955523684145
-3.654971377292683,-11.619201932421603,-5.669755344896905
-3.794475602357026,-11.5649225581737,-5.665565615871211
-3.9332061670785237,-11.508992875000116,-5.661386933629374
-4.0711442927914625,-11.451424791903994,-5.657219890899091
-4.208271401335621,-11.392230407110898,-5.653065076055506
-4.344569116258655,-11.33142200443172,-5.6489230730653155
-4.480019263950042,-11.269012049642596,-5.644794461432847
-4.614603874707745,-11.205013186883034,-5.640679816148124
-4.748305183738695,-11.139438235073444,-5.636579707636871
-4.8811056320942505,-11.072300184353184,-5.632494701712443
-5.012987867541799,-11.003612192540293,-5.628425359529656
-5.143934745373655,-10.933387581613884,-5.62437223754048
-5.27392932915444,-10.861639834220302,-5.620335887451597
-5.402954891408183,-10.788382590203959,-5.616316856183755
-5.530994914246278,-10.713629643163879,-5.612315685832938
-5.65803308993756,-10.63739493703677,-5.608332913633269
-5.784053321421702,-10.559692562707571,-5.604369071921691
-5.90903972276719,-10.48053675464826,-5.60042468810431
-6.032976619575057,-10.399941887585744,-5.596500284624447
-6.155848549329682,-10.317922473199571,-5.592596378932333
-6.277640261697834,-10.23449315685021,-5.588713483456404
-6.398336718777256,-10.149668714338546,-5.584852105576213
-6.517923095296024,-10.063464048697302,-5.581012747596878
-6.636384778763882,-9.975894187014934,-5.5771959067250645
-6.753707369576926,-9.88697427729261,-5.573402075046471
-6.869876681076726,-9.796719585334841,-5.569631739504766
-6.984878739565266,-9.705145491674214,-5.565885381881976
-7.0986997842768815,-9.612267488530769,-5.56216347878026
-7.211326267308451,-9.518101176806395,-5.558466501605067
-7.322744853509091,-9.422662263114724,-5.554794916549623
-7.432942420330583,-9.325966556846844,-5.5511491845807415
-7.541906057639762,-9.228029967273198,-5.547529761425889
-7.649623067494084,-9.128868500681987,-5.543937097561512
-7.75608096388162,-9.028498257554341,-5.540371638202567
-7.861267472426628,-8.926935429776556,-5.536833823293232
-7.9651705300620055,-8.824196297889523,-5.533324087498775
-8.067778284669702,-8.720297228375664,-5.5298428601985234
-8.169079094690357,-8.615254670983443,-5.5263905654799315
-8.269061528703329,-8.509085156089629,-5.522967622133698
-8.367714364978253,-8.401805292099432,-5.519574443649904
-8.465026590999322,-8.293431762884522,-5.516211438215136
-8.560987402963415,-8.1839813252591,-5.512879008710585
-8.655586205253213,-8.073470806493937,-5.50957755271105
-8.748812609886429,-7.961917101868437,-5.506307462484859
-8.84065643594226,-7.8493371722607215,-5.5030691249946395
-8.931107708966184,-7.735748041775623,-5.49986292189894
-9.02015666035415,-7.621166795410582,-5.49668922955464
-9.107793726717256,-7.50561057675932,-5.493548419020154
-9.194009549227982,-7.389096585753171,-5.4904408560593545
-9.278794972949019,-7.271642076439955,-5.48736690114624
-9.3621410461457,-7.1532643548002,-5.484326909470258
-9.44403901958313,-7.033980776600562,-5.481321230942311
-9.524480345808893,-6.913808745284216,-5.478350210201369
-9.60345667842246,-6.792765709898029,-5.475414186621695
-9.680959871332172,-6.670869163056223,-5.472513494320631
-9.756981978000796,-6.5481366389403375,-5.469648462166928
-9.831515250680617,-6.424585711335118,-5.466819413789598
-9.90455213963894,-6.300233991700141,-5.464026667587241
-9.97608529237496,-6.1750991272767894,-5.461270536737839
-10.046107552828879,-6.049198799230258,-5.45855132920898
-10.114611960584154,-5.922550720826277,-5.455869347768489
-10.18159175006371,-5.795172635642158,-5.453224889995449
-10.247040349721017,-5.667082315811769,-5.4506182482915495
-10.310951381226827,-5.53829756030413,-5.448049709892799
-10.373318658652375,-5.408836193235102,-5.445519556881516
-10.43413618764988,-5.278716062211846,-5.443028066198613
-10.49339816463107,-5.147955036709599,-5.440575509656127
-10.55109897594458,-5.016571006480256,-5.438162153949991
-10.60723319705286,-4.88458187999239,-5.435788260673006
-10.66179559170941,-4.752005582902186,-5.433454086328003
-10.714781111137023,-4.618860056554819,-5.43115988234116
-10.766184893207717,-4.485163256515778,-5.428905895075467
-10.816002261625066,-4.350933151131645,-5.426692365844311
-10.864228725109582,-4.2161877201198,-5.424519530925146
-10.910859976587743,-4.080944953186527,-5.422387621573244
-10.955891892385404,-3.945222848673012,-5.420296864035511
-10.999320531426081,-3.8090394122286795,-5.418247479564324
-11.041142134434779,-3.6724126555112564,-5.416239684431386
-11.081353123147936,-3.5353605949131297,-5.414273689941581
-11.119950099529985,-3.3979012503133132,-5.412349702446805
-11.156929844997151,-3.2600526438545065,-5.410467923359746
-11.19228931964896,-3.1218327987446544,-5.408628549167618
-11.226025661508006,-2.9832597380824124,-5.406831771445805
-11.258136185768418,-2.8443514837059194,-5.405077776871417
-11.288618384053551,-2.7051260550643166,-5.403366747236724
-11.594684569609313,-2.6284443391209593,-5.5340102370779745
-11.60981584657275,-2.482486970963844,-5.526274890814417
-11.623060777960577,-2.3365440046264827,-5.518514538846025
-11.634424977661887,-2.1906409572871377,-5.510730646431307
-11.643914408303495,-2.044803133103647,-5.502924672005158
-11.65153537466424,-1.899055618588912,-5.495098066837166
-11.657294517052588,-1.7534232781796542,-5.4872522746999595
-11.661198804652997,-1.6079307499972977,-5.479388731547573
-11.66325552884635,-1.4626024417996732,-5.471508865203827
-11.663472296509749,-1.3174625271221112,-5.463614095060761
-11.661857023300755,-1.1725349416063728,-5.455705831787045
-11.658417926931122,-1.0278433795156385,-5.447785477046395
-11.653163520434902,-0.8834112904338229,-5.439854423225923
-11.646102605435752,-0.7392618761471881,-5.431914053174414
-11.637244265418053,-0.5954180877062183,-5.423965739950445
-11.626597859006463,-0.45190262266557407,-5.416010846580323
-11.614173013258252,-0.3087379224998432,-5.408050725825762
-11.599979616972785,-0.16594617019271465,-5.400086719961225
-11.584027814022292,-0.023549287997099308,-5.3921201605608635
-11.566327996707985,0.11843106463635683,-5.384152368294966
-11.546890799145467,0.2599734929650152,-5.376184652735827
-11.525727090683178,0.40105686869692786,-5.368218312172935
-11.50284796935762,0.5416603315733266,-5.3602546334373935
-11.47826475538883,0.6817632907936699,-5.352294891735436
-11.451988984719543,0.821345426286241,-5.344340350490973
-11.424032402601352,0.9603866898272345,-5.336392261196996
-11.394406957230963,1.0988673060113658,-5.328451863275767
-11.363124793439642,1.2367677730770648,-5.320520383947638
-11.330198246438702,1.3740688635893707,-5.312599038108387
-11.295639835623815,1.5107516249836734,-5.304689028214918
-11.259462258440832,1.6467973799734856,-5.296791544179212
-11.221678384315613,1.7821877268254298,-5.288907763270376
-11.182301248650237,1.9169045395047382,-5.28103885002464
-11.141344046887976,2.050929967694431,-5.2731859561631795
-11.098820128649065,2.1842464366915024,-5.26535022051758
-11.200356103499422,2.3473540272272757,-5.326785008130729
-11.167189142676838,2.4838404013598145,-5.32510746327567
-11.132308709372232,2.619854389034218,-5.323405559603508
-11.095722193068447,2.7553740320885587,-5.321679600882029
-11.057437275382803,2.890377502182293,-5.319929894623889
-11.01746192744407,3.0248431049149036,-5.318156752009213
-10.975804407206734,3.1587492838845823,-5.316360487807677
-10.932473256704013,3.292074624685885,-5.3145414203000785
-10.887477299241182,3.4247978588454497,-5.31269987119943
-10.840825636530802,3.556897867694728,-5.3108361655716285
-10.792527645771354,3.6883536861788975,-5.308950631755702
-10.742592976670927,3.8191445066010745,-5.307043601283702
-10.691031548417532,3.949249682300989,-5.30511540880025
-10.637853546597638,4.0786487312673785,-5.303166391981778
-10.583069420064584,4.207321339683334,-5.301196891455499
-10.526689877758463,4.335247365403932,-5.299207250718137
-10.468725885479138,4.462406841365489,-5.297197816054456
-10.409188662613994,4.588779978925846,-5.295168936455598
-10.34808967882214,4.714347171135094,-5.293120963537298
-10.285440650676628,4.83908899593628,-5.291054251457972
-10.22125353826641,4.962986219295536,-5.288969156836725
-10.155540541759665,5.086019798261265,-5.286866038671327
-10.088314097930121,5.208170883951941,-5.284745258256145
-10.019586876648098,5.329420824472214,-5.282607179100101
-9.94937177733784,5.449751167756979,-5.28045216684467
-9.87768192540285,5.569143664343156,-5.278280589181944
-9.804530668620856,5.687580270068943,-5.2760928157728
-9.729931573510026,5.805043148700375,-5.273889218165191
-9.65389842166809,5.921514674485001,-5.271670169712599
-9.57644520608602,6.036977434632639,-5.269436045492667
-9.497586127437796,6.151414231723057,-5.2671872222260445
-9.417335590348005,6.264808086040629,-5.264924078195471
-9.335708199638738,6.377142237835908,-5.2626469931651245
-9.25271875655748,6.488400149514221,-5.2603563483002596
-9.168382254987499,6.598565507751313,-5.258052526087161
-9.08271387764232,6.707622225536218,-5.255735910253435
-8.995728992245876,6.8155544441414575,-5.253406885688676
-8.907443147699778,6.92234653502079,-5.251065838365503
-8.817872070239341,7.027983101634734,-5.2487131552610276
-8.727031659579767,7.132448981204105,-5.2463492242787435
-8.634937985054039,7.235729246391887,-5.243974434170877
-8.541607281743959,7.337809206913742,-5.241589174461211
-8.447055946605811,7.438674411077519,-5.239193835368422
-8.351300534592056,7.538310647252167,-5.2367888077299165
-8.254357754770473,7.636703945266412,-5.23437448292622
-8.156244466442168,7.73384057773777,-5.2319512528059215
-8.056977675259773,7.829707061332222,-5.2295195096111975
-7.956574529347241,7.9242901579551495,-5.227079645903923
-7.855052315422507,8.017576875874054,-5.224632054492406
-7.75242845492436,8.1095544707736,-5.222177128358743
-7.648720500144803,8.200210446743572,-5.219715260586828
-7.543946130368124,8.289532557200337,-5.217246844291016
-7.4381231480179775,8.37750880574251,-5.214772272545468
-7.3312694748136,8.464127446941394,-5.212291938314184
-7.223403147936424,8.549376987066932,-5.20980623438175
-7.1145423162082055,8.633246184749856,-5.207315553284783
-7.004705236281798,8.715724051580752,-5.204820287244136
-6.893910268845702,8.796799852646778,-5.202320828097823
-6.782175874843447,8.87646310700683,-5.199817567234706
-6.669520611708891,8.954703588105865,-5.197310895528952
-6.555963129618417,9.031511324129271,-5.194801203275263
-6.441522167761088,9.106876598298017,-5.1922888801248925
-6.326216550627685,9.180789949105446,-5.189774315022452
-6.210065184319588,9.253242170496572,-5.187257896143529
-5.980856463187536,9.15247833431743,-5.089240566338071
-5.850781800294556,9.197971611056012,-5.0742286437549655
-5.720658425878428,9.241920689664196,-5.059362233391165
-5.5905017899784815,9.284334028425839,-5.04464177644737
-5.460327051698921,9.325220147394516,-5.030067684418075
-5.330149083335247,9.364587622415545,-5.015640340006779
-5.199982474541859,9.402445079331791,-5.001360098026766
-5.069841536535999,9.438801188370313,-4.987227286287351
-4.939740306333488,9.473664658706948,-4.973242206465486
-4.809692551011746,9.50704423320575,-4.959405134962665
-4.679711771995952,9.538948683330322,-4.945716323747077
-4.549811209364274,9.569386804223939,-4.93217600118098
-4.420003846168282,9.598367409955374,-4.918784372833261
-4.2903024127649,9.625899328927328,-4.905541622277209
-4.1607193911563884,9.651991399444318,-4.892447911873495
-4.031267019334956,9.676652465436925,-4.879503383538402
-3.9019572956289035,9.699891372339247,-4.866708159497349
-3.7728019830472013,9.721716963116425,-4.854062343023749
-3.6438126136196836,9.742138074439117,-4.841566019163297
-3.515000492730119,9.761163533001826,-4.8292192554437445
-3.386376703439573,9.778802151981942,-4.817022102570267
-3.2579521107976452,9.795062727636422,-4.804974595106505
-3.1297373661392793,9.80995403603306,-4.793076752141413
-3.001742911364966,9.823484829913303,-4.781328577942023
-2.873978983202302,9.835663835683555,-4.769730062592228
-2.746455617446998,9.846499750532026,-4.758281182617757
-2.619182653181522,9.856001239668172,-4.746981901597457
-2.4921697369696885,9.864176933681742,-4.73583217076102
-2.3654263270256397,9.871035426018624,-4.724831929573331
-2.238961697355723,9.876585270570569,-4.713981106305574
-2.112784941871917,9.88083497937605,-4.703279618593259
-1.9869049784755186,9.883793020429403,-4.692727373981346
-1.8613305531099427,9.885467815595597,-4.682324270456623
-1.7360702437815183,9.885867738627894,-4.672070196967504
-1.61113246454732,9.885001113285815,-4.661965033931454
-1.4865254694690848,9.882876211550725,-4.652008653730164
-1.3622573565324216,9.87950125193659,-4.64220092119271
-1.2383360715305258,9.87488439789334,-4.632541694066845
-1.114769411911735,9.869033756300405,-4.6230308234786035
-0.9915650305903079,9.861957376048002,-4.613668154380422
-0.8687304397198926,9.853663246703857,-4.604453525987946
-0.7462730144291901,9.84415929726299,-4.5953867722057105
-0.6241999965194089,9.833453394978397,-4.5864677220418715
-0.5025184981231433,9.8215533442703,-4.577696200012186
-0.38123550532437783,9.808466885711935,-4.569072026533418
-0.2603578817393663,9.794201695089688,-4.560595018306357
-0.13989237205817992,9.778765382535541,-4.55226498868861
-0.019845605546785508,9.762165491729828,-4.5440817480574
0.09977590049046614,9.744409499172352,-4.536045104162488
0.21896573728799243,9.725504813519956,-4.528154862469459
0.33771760123580374,9.705458774988637,-4.520410826493486
0.4560252905359743,9.684278654818483,-4.512812798123816
0.5738827018987166,9.661971654799643,-4.505360577939109
0.6912838272779607,9.63854490685754,-4.498053965513791
0.8082227506463275,9.614005472695803,-4.490892759715655
0.9246936448093414,9.588360343495227,-4.483876758994804
1.0406907682587025,9.56161643966716,-4.477005761664144
