-0.2980276858703276,-0.2037379752533557,-2.3349438040075667
-0.3005087688740148,-0.20006760336218832,-2.334969799324375
-0.30294459692641845,-0.1963669848462817,-2.3349953776384766
-0.3053348003947778,-0.19263667801485398,-2.3350205350703193
-0.3076790165428217,-0.18887724571673845,-2.335045267803939
-0.30997688958707664,-0.18508925525497333,-2.3350695720875523
-0.3122280707521113,-0.18127327830067838,-2.335093444234137
-0.3144322183247094,-0.17742989080623262,-2.335116880622004
-0.31658899770695786,-0.17355967291776994,-2.3351398776953576
-0.3186980814682476,-0.16966320888699876,-2.3351624319648496
-0.3207591493961711,-0.1657410869823687,-2.335184540008118
-0.322771888546315,-0.1617938993995888,-2.3352061984703205
-0.3247359932909326,-0.15782224217152024,-2.335227404064651
-0.326651165366494,-0.15382671507745063,-2.3352481535728535
-0.32851711392010163,-0.1498079215517671,-2.3352684438457216
-0.33033355555476507,-0.14576646859204329,-2.3352882718035857
-0.33210021437352677,-0.14170296666655416,-2.335307634436792
-0.33381682202243224,-0.1376180296212312,-2.3353265288061706
-0.33548311773233586,-0.13351227458607437,-2.3353449520434912
-0.337098848359536,-0.12938632188103802,-2.33536290135191
-0.3386637684252331,-0.12524079492139908,-2.335380374006403
-0.34017764015380214,-0.12107632012263121,-2.3353973673541923
-0.3416402335098753,-0.11689352680479041,-2.3354138788151553
-0.3430513262342256,-0.11269304709643688,-2.3354299058822274
-0.3444107038784488,-0.10847551583810068,-2.3354454461217924
-0.3457181598384346,-0.10424157048530974,-2.3354604971740613
-0.34697349538662303,-0.09999185101119683,-2.335475056753438
-0.34817651970303937,-0.09572699980869946,-2.335489122648876
-0.34932704990510344,-0.0914476615923676,-2.335502692724223
-0.35042491107620805,-0.08715448329979497,-2.3355157649185516
-0.35146993629305995,-0.08284811399269416,-2.3355283372464832
-0.3524619666517804,-0.0785292047576222,-2.3355404077984936
-0.3534008512927607,-0.07419840860638385,-2.335551974741213
-0.3542864474242672,-0.06985638037611676,-2.3355630363177102
-0.35511862034479225,-0.06550377662908562,-2.3355735908477673
-0.35589724346414847,-0.061141255552192776,-2.3355836367281397
-0.3566221983233004,-0.056769476856224965,-2.3355931724328083
-0.35729337461293165,-0.052389101674853486,-2.335602196513215
-0.357910670190744,-0.0480007924634027,-2.3356107075984904
-0.35847399109748507,-0.04360521289740156,-2.335618704395665
-0.35898325157170224,-0.03920302777093596,-2.3356261856898732
-0.3594383740632199,-0.03479490289482115,-2.3356331503445418
-0.3598392892453375,-0.030381504994603112,-2.3356395973015656
-0.3601859360257472,-0.025963501608414905,-2.335645525581476
-0.36047826155616736,-0.02154156098469429,-2.3356509342835894
-0.3607162212406923,-0.017116351979789047,-2.335655822586151
-0.36089977874285534,-0.012688543955458433,-2.33566018974646
-0.361028905991404,-0.00825880667629078,-2.335664035100989
-0.36110358318478786,-0.0038278102070548187,-2.3356673580654848
-0.36112379879435497,0.0006037751900001203,-2.335670158135059
-0.36108954956626016,0.0050352791578796635,-2.33567243488427
-0.36100084052208176,0.009466031347598243,-2.3356741879671854
-0.36085768495814863,0.013895361520931133,-2.3356754171174394
-0.3606601044435751,0.018322599653156076,-2.33567612214827
-0.36040812881700773,0.022747076035758096,-2.335676302952555
-0.3601017961820805,0.027168121379091047,-2.335675959502822
-0.3597411529015817,0.03158506691496953,-2.3356750918512548
-0.35932625359033304,0.03599724449918264,-2.335673700129687
-0.3588571611067808,0.040403986713909316,-2.3356717845495805
-0.3583339465433024,0.04480462697001814,-2.3356693454019917
-0.3577566892152283,0.049198499609235995,-2.335666383057526
-0.3571254766485819,0.0535849400061707,-2.3356628979662815
-0.3564404045665396,0.057963284670170125,-2.335658890657777
-0.3557015768746123,0.062332871346997706,-2.335654361740871
-0.35490910564455236,0.0666930391203162,-2.3356493119036665
-0.35406311109698724,0.0710431285129533,-2.335643741913403
-0.35316372158278314,0.07538248158794304,-2.3356376526163363
-0.35221107356314296,0.07971044204931686,-2.335631044937608
-0.35120531158844015,0.08402635534263612,-2.3356239198811015
-0.3501465882757924,0.08832956875524618,-2.335616278529284
-0.34903506428538067,0.0926194315162353,-2.3356081220430376
-0.34787090829551515,0.09689529489608338,-2.335599451661481
-0.3466542969764537,0.1011565123059857,-2.335590268701773
-0.3453854149629771,0.10540243939683511,-2.3355805745589096
-0.3440644548257254,0.10963243415784274,-2.3355703707055047
-0.34269161704130047,0.11384585701479016,-2.3355596586915635
-0.3412671099611396,0.11804207092788654,-2.335548440144237
-0.3397911497791658,0.12222044148922569,-2.3355367167675727
-0.3382639604982192,0.12638033701981793,-2.3355244903422463
-0.3366857738952773,0.13052112866618829,-2.3355117627252846
-0.33505682948546706,0.13464219049652346,-2.3354985358497786
-0.33337737448487775,0.13874289959634792,-2.335484811724578
-0.33164766377217936,0.14282263616372315,-2.3354705924339845
-0.3298679598490525,0.14688078360394335,-2.3354558801374212
-0.32803853279943795,0.15091672862372435,-2.3354406770691005
-0.3261596602476123,0.15492986132485953,-2.3354249855376756
-0.3242316273150952,0.15891957529733805,-2.3354088079258792
-0.3222547265763988,0.16288526771190137,-2.335392146690157
-0.32022925801362206,0.16682633941203173,-2.33537500436028
-0.3181555289699036,0.17074219500535076,-2.335357383538956
-0.31603385410173546,0.17463224295441904,-2.3353392869014225
-0.31386455533014723,0.1784958956669205,-2.3353207171950294
-0.3116479617907734,0.1823325695852146,-2.3353016772388164
-0.3093844097828037,0.18614168527524846,-2.3352821699230693
-0.3070742427168339,0.18992266751480755,-2.3352621982088757
-0.3047178110616186,0.1936749453810979,-2.3352417651276607
-0.30231547228974087,0.19739795233763963,-2.3352208737807207
-0.29986759082220216,0.20109112632046514,-2.3351995273387365
-0.29737453797194835,0.20475390982360056,-2.3351777290412854
-0.2948366918863336,0.2083857499838255,-2.335155482196336
-0.2922544374885399,0.21198609866468948,-2.3351327901797347
-0.28962816641795547,0.2155544125397789,-2.3351096564346836
-0.2869582769695247,0.21909015317521843,-2.3350860844712042
-0.284245174032082,0.222592787111392,-2.335062077865594
-0.2814892690256738,0.2260617859438764,-2.3350376402598725
-0.2786909798378873,0.22949662640356816,-2.3350127753612147
-0.27585073075918815,0.23289679043599765,-2.3349874869413796
-0.27296895241728486,0.2362617652798122,-2.3349617788361217
-0.27004608171052613,0.23959104354442248,-2.334935654944601
-0.26708256174034545,0.24288412328679307,-2.3349091192287754
-0.2640788417427611,0.246140508087373,-2.33488217571279
-0.2610353770189467,0.24935970712514754,-2.334854828482353
-0.25795262886487996,0.2525412352518049,-2.334827081684103
-0.25483106450008347,0.2556846130650049,-2.3347989395249678
-0.2516711569954702,0.2587893669807361,-2.3347704062715144
-0.2484733852003025,0.26185502930475574,-2.334741486249289
-0.24523823366828093,0.26488113830309473,-2.3347121838421474
-0.24196619258276994,0.2678672382716245,-2.334682503491578
-0.23865775768117928,0.27081287960466793,-2.334652449696017
-0.23531343017850595,0.2737176188626511,-2.3346220270101523
-0.23193371669005758,0.27658101883877856,-2.3345912400442184
-0.22851912915336134,0.27940264862472936,-2.3345600934632897
-0.22507018474927987,0.28218208367535735,-2.334528591986555
-0.22158740582234013,0.2849189058723912,-2.334496740386595
-0.21807131980029076,0.2876127035871226,-2.334464543488641
-0.21452245911290496,0.2902630717420723,-2.3344320061698354
-0.21094136111003367,0.2928696118716275,-2.3343991333584775
-0.2073285679789323,0.2954319321816392,-2.3343659300332655
-0.20368462666086537,0.2979496476079733,-2.334332401222529
-0.20001008876701107,0.3004223798740034,-2.334298552003454
-0.1963055104936712,0.30284975754704174,-2.334264387501305
-0.19257145253680882,0.30523141609369453,-2.3342299128886315
-0.18880848000591866,0.30756699793413955,-2.334195133384477
-0.18501716233725277,0.30985615249531245,-2.334160054253573
-0.18119807320640918,0.312098536262999,-2.3341246808055325
-0.17735179044029964,0.31429381283282354,-2.3340890183940317
-0.17347889592851384,0.31644165296012544,-2.3340530724159914
-0.16957997553408777,0.31854173460871965,-2.334016848310743
-0.16565561900369893,0.3205937429985309,-2.3339803515591995
-0.1617064198772937,0.3225973706520983,-2.3339435876830112
-0.15773297539717104,0.3245523174399408,-2.3339065622437185
-0.15373588641652752,0.3264582906247804,-2.333869280841901
-0.14971575730748762,0.3283150049046131,-2.3338317491163196
-0.14567319586862643,0.3301221824546263,-2.33379397274305
-0.1416088132320027,0.33187955296795346,-2.3337559574346165
-0.1375232237697203,0.33358685369526153,-2.3337177089391155
-0.13341704500002483,0.3352438294831669,-2.3336792330393354
-0.12929089749296072,0.33685023281147314,-2.333640535551876
-0.12514540477559286,0.33840582382922785,-2.333601622326255
-0.1209811932368189,0.33991037038959027,-2.3335624992440143
-0.11679889203177653,0.3413636480835102,-2.3335231722178236
-0.11259913298587126,0.34276544027220884,-2.333483647190577
-0.10838255049842982,0.3441155381184617,-2.3334439301344836
-0.10414978144600388,0.34541374061667585,-2.333404027050159
-0.09990146508533211,0.34665985462176185,-2.333363943965707
-0.09563824295597823,0.3478536948767935,-2.3333236869358034
-0.09136075878266407,0.3489950840394532,-2.333283262040772
-0.08706965837730495,0.3500838527072614,-2.333242675385658
-0.08276558954077234,0.3511198394415837,-2.3332019330992972
-0.07844920196438944,0.35210289079041784,-2.333161041333385
-0.07412114713118481,0.3530328613099522,-2.3331200062615407
-0.06978207821690961,0.3539096135848995,-2.333078834078366
-0.06543264999084383,0.3547330182475981,-2.3330375309985047
-0.061073518716397004,0.35550295399588383,-2.3329961032556987
-0.05670534205152842,0.35621930760972675,-2.3329545571018406
-0.05232877894899449,0.3568819739666334,-2.3329128988060237
-0.04794448955644197,0.35749085605581343,-2.3328711346535917
-0.04355313511636548,0.35804586499110785,-2.332829270945184
-0.039155377865936834,0.35854692002267946,-2.3327873139957807
-0.034751880936731684,0.35899394854746414,-2.332745270133745
-0.030343308254358412,0.3593868861183827,-2.332703145699867
-0.02593032443801503,0.35972567645231207,-2.332660947046397
-0.021513594699979408,0.36001027143681735,-2.332618680536091
-0.017093784745058082,0.3602406311356431,-2.332576352541244
-0.012671560669999155,0.36041672379296485,-2.332533969442726
-0.008247588862894261,0.3605385258364018,-2.3324915376290187
-0.0038225359025770584,0.3606060218787899,-2.33244906349525
0.0006029315419633076,0.360619204718717,-2.3324065534422256
0.0050281468121353,0.3605780753398222,-2.3323640138754658
0.009452443360257433,0.3604826429088578,-2.3323214512042374
0.013875154850004914,0.36033292477251727,-2.332278871840585
0.01829561525678562,0.3601289464530314,-2.332236282198367
0.022713158968019957,0.35987074164253136,-2.3321936886922856
0.02712712088331986,0.3595583521961847,-2.332151097736925
0.0315368365145419,0.3591918281241025,-2.332108515745779
0.03594164208570757,0.35877122758202223,-2.3320659491302917
0.04034087463277248,0.3582966168607692,-2.33202340429889
0.04473387210322656,0.3577680703744967,-2.3319808876560177
0.049119973455518176,0.35718567064771073,-2.3319384056011767
0.05349851875827775,0.3565495083010803,-2.3318959645279635
0.05786884928933594,0.3558596820360366,-2.3318535708231076
0.06223030763451212,0.3551162986181665,-2.331811230865515
0.06658223778616795,0.3543194728594003,-2.331768951025308
0.07092398524150208,0.3534693275990013,-2.331726737662874
0.07525489710058093,0.3525659936833579,-2.3316845971279068
0.07957432216408204,0.3516096099445849,-2.3316425357584585
0.08388161103074271,0.35060032317793627,-2.331600559879988
0.0881761161944973,0.34953828811803445,-2.3315586758044153
0.09245719214128507,0.3484236674139214,-2.331516889829175
0.09672419544552295,0.34725663160293535,-2.3314752082362764
0.1009764848662188,0.34603735908341837,-2.3314336372913607
0.1052134214427218,0.3447660360862599,-2.3313921832427686
0.10943436859008557,0.34344285664528185,-2.3313508523206026
0.11363869219404024,0.3420680225664691,-2.3313096507358
0.11782576070555022,0.34064174339605413,-2.3312685846792016
0.12199494523495316,0.3391642363874571,-2.331227660320633
0.1261456196456576,0.33763572646709183,-2.3311868838079786
0.13027716064739325,0.3360564461990407,-2.3311462612662694
0.1343889478889971,0.33442663574860415,-2.3311057987967687
0.13848036405071987,0.3327465428447357,-2.331065502476062
0.1425507949360461,0.33101642274136206,-2.331025378355153
0.1465996295630063,0.3292365381776016,-2.330985432458565
0.15062626025497675,0.32740715933688314,-2.3309456707834393
0.15463008273094594,0.3255285638049753,-2.3309060992986494
0.15861049619524256,0.3236010365269308,-2.3308667239439083
0.16256690342670413,0.32162486976295523,-2.33082755062889
0.1664987108672826,0.31960036304320627,-2.330788585232349
0.17040532871006506,0.31752782312153155,-2.330749833601249
0.17428617098670504,0.3154075639281518,-2.330711301549893
0.17814065565424853,0.31323990652129835,-2.3306729948590634
0.18196820468134006,0.3110251790378132,-2.3306349192751634
0.1857682441338035,0.3087637166427167,-2.3305970805093645
0.18954020425957727,0.3064558614777556,-2.3305594842367605
0.19328351957300072,0.3041019626089357,-2.3305221360955284
0.196997628938431,0.3017023759730507,-2.330485041686091
0.20068197565318774,0.29925746432321276,-2.3304482065702916
0.204336007529805,0.29676759717339685,-2.3304116362705662
0.2079591769775879,0.2942331507420046,-2.3303753362691313
0.21155094108345496,0.2916545078944596,-2.3303393120071716
0.21511076169205953,0.2890320580848402,-2.330303568884035
0.2186381054851794,0.2863661972965606,-2.3302681122564364
0.22213244406035865,0.2836573279821112,-2.3302329474376666
0.22559325400879887,0.28090585900186327,-2.330198079696808
0.22902001699248012,0.27811220556195304,-2.330163514257956
0.23241221982050983,0.27527678915124876,-2.3301292562994482
0.23576935452468098,0.2724000374774173,-2.330095310953104
0.23909091843423677,0.2694823844020929,-2.330061683303465
0.24237641424982423,0.26652426987516564,-2.330028378387047
0.245625350116634,0.26352613986819196,-2.3299954011915975
0.2488372396967094,0.2604884463069451,-2.329962756655363
0.25201160224042035,0.25741164700310987,-2.3299304496663598
0.2551479626570904,0.2542962055851339,-2.3298984850616566
0.25824585158476476,0.2511425914282492,-2.3298668676266625
0.26130480545911633,0.24795127958366822,-2.3298356020944238
0.2643243665814718,0.24472275070697241,-2.329804693144926
0.267304083185958,0.2414574909856968,-2.3297741454044103
0.27024350950575043,0.2381559920661286,-2.3297439634446895
0.27314220583842225,0.23481875097932509,-2.329714151782481
0.27599973861038163,0.23144627006636453,-2.329684714878739
0.2788156804403881,0.22803905690284185,-2.3296556571380056
0.2815896102021413,0.2245976242226194,-2.32962698290776
0.2843211130859326,0.22112248984084326,-2.329598696477781
0.2870097806593538,0.21761417657623777,-2.3295708020795223
0.2896552109270488,0.2140732121726911,-2.3295433038854876
0.29225700838950897,0.21050012922013905,-2.3295162060086207
0.29481478410089573,0.20689546507476547,-2.3294895125017065
0.29732815572588966,0.20325976177852287,-2.329463227356771
0.29979674759555336,0.1995935659779935,-2.3294373545045013
0.3022201907622044,0.19589742884259662,-2.329411897813671
0.3045981230532896,0.19217190598215542,-2.32938686109057
0.30693018912425285,0.18841755736383847,-2.3293622480784526
0.30921604051039014,0.18463494722848492,-2.3293380624569857
0.3114553356776864,0.1808246440063259,-2.3293143078417144
0.3136477400726251,0.17698722023211402,-2.3292909877835313
0.3157929261709646,0.17312325245967808,-2.329268105768158
0.31789057352547767,0.16923332117590592,-2.3292456652156366
0.31994036881264265,0.16531801071417956,-2.32922366947983
0.32194200587828553,0.16137790916726305,-2.3292021218479313
0.3238951857821638,0.1574136082996672,-2.329181025539985
0.3257996168414866,0.15342570345949436,-2.329160383708417
0.3276550146733673,0.14941479348978123,-2.3291401994375738
0.3294611022362005,0.14538148063935116,-2.329120475743273
0.3312176098699597,0.14132637047318933,-2.3291012155723636
0.3329242753354098,0.1372500717823518,-2.3290824218022954
0.33458084385223086,0.13315319649342197,-2.3290640972407015
0.3361870681360446,0.12903635957753118,-2.3290462446249873
0.3377427084343435,0.12490017895894853,-2.329028866621931
0.3392475325613138,0.1207452754232627,-2.3290119658272976
0.3407013159315507,0.11657227252515888,-2.3289955447654584
0.3421038415926598,0.11238179649581331,-2.328979605889024
0.3434549002567414,0.10817447614991142,-2.328964151578488
0.3447542903307543,0.10395094279230559,-2.328949184141879
0.3460018179457521,0.09971183012432695,-2.328934705814426
0.3471972969849927,0.0954577741497634,-2.328920718758231
0.34834054911091417,0.09118941308051567,-2.3289072250619576
0.34943140379097504,0.08690738724194588,-2.3288942267405237
0.35046969832235453,0.08261233897793524,-2.3288817257348104
0.3514552778555114,0.07830491255565676,-2.3288697239113803
0.35238799541659593,0.0739857540700857,-2.328858223062202
0.3532677119287156,0.06965551134825168,-2.3288472249043948
0.35409429623204786,0.06531483385325532,-2.328836731079976
0.35486762510280023,0.06096437258805499,-2.328826743155622
0.3555875832710153,0.056604779999041274,-2.328817262622442
0.35625406343721605,0.05223670987941271,-2.3288082908957604
0.35686696628789205,0.04786081727236599,-2.3287998293149115
0.3574262005098234,0.04347775837411247,-2.328791879143043
0.35793168280324017,0.03908819043673565,-2.328784441566936
0.3583833378938177,0.03469277167090681,-2.32877751769683
0.3587810985435029,0.030292161148464357,-2.328771108566262
0.3591249055601736,0.025887018704880572,-2.3287652151319156
0.3594147078061284,0.021478004841619127,-2.328759838273484
0.35965046220540525,0.017065780628406916,-2.328754978793542
0.359832133749929,0.0126510076054259,-2.328750637417427
0.35995969550448653,0.008234347685442251,-2.3287468147931354
0.3600331286105302,0.00381646305588734,-2.328743511491229
0.36005242228880635,-0.0006019839190969707,-2.3287407280047514
0.3600175738408119,-0.005020330796636304,-2.3287384647491556
0.359928588649077,-0.009437915153110384,-2.3287367220622452
0.359785480176274,-0.01385407468213106,-2.3287355002041252
0.35958826996315296,-0.018268147292506046,-2.328734799357163
0.3593369876253046,-0.022679471206164776,-2.3287346196259624
0.35903167084875043,-0.02708738505604292,-2.3287349610373487
0.35867236538436154,-0.03149122798390197,-2.3287358235403652
0.3582591250411053,-0.03589033973807821,-2.328737207006281
0.35779201167812275,-0.040284060771143916,-2.3287391112286056
0.35727109519563666,-0.04467173233746619,-2.3287415359231263
0.3566964535246921,-0.04905269659065097,-2.328744480727942
0.3560681726157296,-0.05342629668086002,-2.3287479452035202
0.3553863464259945,-0.0577918768519859,-2.3287519288327605
0.3546510769057825,-0.0621487825386704,-2.328756431021068
0.35386247398352416,-0.06649636046315197,-2.32876145109644
0.3530206555497094,-0.07083395873193642,-2.3287669883095647
0.3521257474396551,-0.07516092693226567,-2.3287730418339296
0.35117788341511846,-0.07947661622837691,-2.328779610765942
0.3501772051447563,-0.08378037945754395,-2.328786694125058
0.3491238621834356,-0.08807157122587576,-2.3287942908539283
0.3480180119503961,-0.09234954800386806,-2.3288023998185485
0.34685981970626906,-0.0966136682216911,-2.328811019808426
0.34564945852895507,-0.10086329236419786,-2.3288201495367575
0.3443871092883619,-0.10509778306564765,-2.3288297876406108
0.34307296062000964,-0.10931650520412103,-2.3288399326811273
0.3417072088975036,-0.11351882599561763,-2.32885058314373
0.34029005820387914,-0.11770411508782944,-2.3288617374383427
0.33882172030182317,-0.12187174465356533,-2.3288733938996233
0.3373024146027753,-0.12602108948381893,-2.3288855507872026
0.3357323681349132,-0.13015152708047267,-2.3288982062859414
0.33411181551002567,-0.13426243774861266,-2.3289113585061902
0.3324409988892792,-0.13835320468845122,-2.328925005484069
0.3307201679478804,-0.14242321408684022,-2.328939145181747
0.3289495798386422,-0.14647185520836042,-2.328953775487746
0.32712949915445366,-0.15049852048598117,-2.3289688942172395
0.32526019788966354,-0.1545026056112681,-2.3289844991123796
0.3233419554003806,-0.15848350962413024,-2.3290005878426188
0.32137505836369296,-0.16244063500209907,-2.3290171580050516
0.3193598007358175,-0.1663733877491171,-2.329034207124766
0.3172964837091819,-0.17028117748382762,-2.3290517326552007
0.31518541566844177,-0.17416341752735856,-2.3290697319785187
0.3130269121454456,-0.1780195249905774,-2.329088202405987
0.31082129577314793,-0.18184892086081272,-2.3291071411783704
0.3085688962384789,-0.1856510300880269,-2.3291265454663312
0.3062700502341771,-0.18942528167042594,-2.3291464123708425
0.3039251014095892,-0.19317110873950114,-2.3291667389236133
0.30153440032044626,-0.19688794864448025,-2.329187522087515
0.2990983043776234,-0.20057524303618204,-2.329208758757034
0.29661717779488433,-0.20423243795026488,-2.329230445758715
0.2940913915356244,-0.20785898388984989,-2.32925257985163
0.2915213232586172,-0.21145433590750978,-2.3292751577278508
0.28890735726276734,-0.2150179536866172,-2.3292981760129297
0.28624988443088395,-0.2185493016220304,-2.3293216312663936
0.2835493021724776,-0.22204784890011253,-2.329345519982247
0.28080601436558933,-0.22551306957807035,-2.329369838589484
0.2780204312976616,-0.2289444426625975,-2.3293945834526073
0.27519296960545364,-0.23234145218781982,-2.329419750872166
0.27232405221401623,-0.23570358729252028,-2.3294453370852897
0.26941410827473106,-0.23903034229663758,-2.3294713382662433
0.26646357310241797,-0.24232121677703114,-2.329497750526984
0.26347288811152847,-0.24557571564249334,-2.3295245699177327
0.2604425007514271,-0.24879334920800045,-2.329551792427549
0.25737286444076835,-0.25197363326819827,-2.329579413984922
0.2542644385009843,-0.25511608917009987,-2.3296074304583634
0.2511176880888865,-0.25822024388499326,-2.329635837657015
0.24793308412839268,-0.26128563007954575,-2.329664631331262
0.24471110324138984,-0.2643117861860917,-2.3296938071733555
0.24145222767773702,-0.26729825647210004,-2.3297233608180448
0.23815694524442485,-0.2702445911088027,-2.329753287843217
0.2348257492338977,-0.273150346238978,-2.3297835837705465
0.23145913835154494,-0.2760150840438817,-2.329814244066152
0.2280576166423775,-0.27883837280930873,-2.329845264141262
0.22462169341689786,-0.28161978699077916,-2.329876639352889
0.22115188317616724,-0.28435890727784235,-2.3299083650045103
0.21764870553609092,-0.2870553206574809,-2.3299404363467606
0.21411268515092352,-0.2897086204766121,-2.3299728485781275
0.21054435163600815,-0.29231840650367424,-2.3300055968456603
0.20694423948976157,-0.29488428498928654,-2.330038676245681
0.20331288801490954,-0.2974058687259797,-2.3300720818245075
0.1996508412389918,-0.2998827771069799,-2.3301058085791837
0.19595864783414393,-0.3023146361840408,-2.3301398514582137
0.19223686103616192,-0.30470107872431795,-2.3301742053623085
0.1884860385628696,-0.3070417442662696,-2.330208865145135
0.1847067425317973,-0.3093362791745798,-2.330243825614077
0.18089953937717573,-0.3115843366940961,-2.3302790815309997
0.17706499976626897,-0.3137855770027688,-2.3303146276130215
0.17320369851504888,-0.3159396672635874,-2.330350458533296
0.16931621450322593,-0.31804628167550447,-2.330386568921796
0.16540313058865064,-0.320105101523337,-2.3304229533661083
0.16146503352108973,-0.32211581522664323,-2.3304596064122323
0.1575025138553991,-0.3240781183875586,-2.330496522565386
0.15351616586410113,-0.32599171383758874,-2.33053369629082
0.14950658744937328,-0.32785631168335255,-2.330571122014634
0.14547438005447086,-0.3296716293512633,-2.330608794124603
0.14142014857459065,-0.3314373916311433,-2.3306467069710073
0.1373445012671836,-0.333153330718767,-2.330684854867469
0.1332480496617394,-0.3348191862573202,-2.3307232320917963
0.12913140846904725,-0.33643470537777315,-2.3307618328868287
0.12499519548995182,-0.33799964273815764,-2.330800651461291
0.12084003152360845,-0.3395137605617447,-2.3308396819906565
0.11666654027526252,-0.34097682867411266,-2.330878918618004
0.11247534826355615,-0.3423886245391024,-2.3309183554548936
0.10826708472738301,-0.34374893329365064,-2.3309579865822374
0.10404238153229486,-0.3450575477814992,-2.3309978060511813
0.09980187307648442,-0.3463142685857708,-2.331037807883986
0.09554619619635284,-0.3475189040604056,-2.331077986074919
0.09127599007167009,-0.34867127036045714,-2.3311183345911473
0.08699189613035252,-0.34977119147123764,-2.3311588473736324
0.07598909805758741,-0.3223716529699468,-2.3312806684643883
0.07202853917342943,-0.3232850841986606,-2.3313181825337996
0.06805700929265401,-0.3241498769610268,-2.3313558306076185
0.06407510533189162,-0.32496589880761767,-2.331393607028835
0.060083425824724715,-0.32573302460534326,-2.3314315061205995
0.05608257083223334,-0.3264511365576442,-2.3314695221870756
0.05207314185327715,-0.3271201242235951,-2.331507649514286
0.048055741734527646,-0.3277398845359168,-2.3315458823709707
0.04403097458026326,-0.32831032181789227,-2.331584215009439
0.039999445661940795,-0.3288313477991838,-2.331622641666433
0.03596176132755631,-0.3293028816305481,-2.331661156563988
0.03191852891080889,-0.32972484989744516,-2.331699753910297
0.027870356640081365,-0.3300971866325403,-2.331738427900578
0.02381785354724921,-0.3304198333270937,-2.3317771727179446
0.01976162937633423,-0.3306927389412377,-2.3318159825342755
0.015702294492014105,-0.3309158599131371,-2.33185485151109
0.011640459788002456,-0.3310891601670317,-2.331893773800422
0.007576736595312762,-0.331212611120158,-2.3319327435456993
0.003511736590419859,-0.3312861916885492,-2.3319717548826198
-0.000553928296667352,-0.33130988829171093,-2.3320108019400343
-0.004619645974408214,-0.3312836948561705,-2.3320498788408273
-0.008684804281794072,-0.3312076128179004,-2.3320889797028
-0.012748791080458769,-0.33108165112361204,-2.3321280986395547
-0.0168109943468243,-0.33090582623092085,-2.3321672297613802
-0.02087080226426485,-0.33068016210738077,-2.332206367176137
-0.024927603315277488,-0.3304046902283872,-2.3322455049901456
-0.028980786373644794,-0.3300794495739484,-2.332284637309072
-0.03302974079657566,-0.32970448662432467,-2.3323237582388177
-0.0370738565168103,-0.32927985535453486,-2.3323628618864056
-0.041112524134675525,-0.3288056172277307,-2.3324019423608697
-0.04514513501007633,-0.32828184118743814,-2.3324409937741426
-0.04917108135440975,-0.3277086036486666,-2.332480010241945
-0.0531897563223873,-0.3270859884878869,-2.332518985884672
-0.05720055410375099,-0.32641408703187763,-2.3325579148282833
-0.06120287001487105,-0.32569299804544105,-2.332596791205188
-0.06519610059020864,-0.3249228277179898,-2.332635609155133
-0.06917964367363155,-0.3241036896490053,-2.332674362826087
-0.0731528985095681,-0.32323570483236935,-2.332713046375127
-0.0771152658339853,-0.3223190016395696,-2.3327516539693227
-0.08106614796517739,-0.32135371580178235,-2.3327901797866177
-0.08500494889435062,-0.32033999039083216,-2.332828618016712
-0.08893107437599036,-0.3192779757990326,-2.3328669628619414
-0.09284393201799679,-0.3181678297179081,-2.3329052085381567
-0.09674293137157468,-0.3170097171158017,-2.3329433492755998
-0.1006274840208634,-0.31580381021436926,-2.33298137931978
-0.10449700367229471,-0.3145502884639634,-2.333019292932344
-0.10835090624366167,-0.3132493385179107,-2.333057084391951
-0.11218860995288706,-0.31190115420568476,-2.3330947479951374
-0.1160095354064769,-0.3105059365049781,-2.333132278057186
-0.11981310568764453,-0.3090638935126771,-2.333169668912988
-0.12359874644409244,-0.3075752404147428,-2.3332069149179038
-0.12736588597543738,-0.30604019945500194,-2.3332440104486225
-0.13111395532026554,-0.3044589999028518,-2.3332809499040166
-0.13484238834280374,-0.3028318780198834,-2.3333177277059947
-0.13855062181919267,-0.30115907702542755,-2.3333543383003517
-0.14223809552335015,-0.2994408470610261,-2.33339077615761
-0.14590425231240872,-0.29767744515383754,-2.3334270357738682
-0.14954853821171543,-0.29586913517897706,-2.333463111671637
-0.1531704024993798,-0.2940161878207987,-2.333498998400671
-0.1567692977903574,-0.2921188805331247,-2.333534690538807
-0.160344680120054,-0.2901774974984267,-2.333570182692785
-0.16389600902743912,-0.2881923295859642,-2.3336054694990733
-0.1674227476376539,-0.28616367430888723,-2.33364054562469
-0.17092436274410128,-0.284091835780308,-2.3336754057680125
-0.1744003248900049,-0.28197712466834746,-2.3337100446595924
-0.1778501084494234,-0.2798198581501651,-2.333744457062958
-0.18127319170770848,-0.2776203598649743,-2.3337786377754153
-0.1846690569413918,-0.2753789598660554,-2.333812581628844
-0.1880371904974897,-0.27309599457176736,-2.333846283490489
-0.19137708287221164,-0.2707718067155705,-2.3338797382637453
-0.19468822878906103,-0.2684067452950622,-2.333912940888938
-0.19797012727631422,-0.2660011655200374,-2.3339458863440967
-0.20122228174386692,-0.2635554287595782,-2.333978569645728
-0.2044442000594344,-0.2610699024881817,-2.334010985849574
-0.20763539462409328,-0.25854496023093365,-2.3340431300513766
-0.21079538244715346,-0.2559809815077349,-2.3340749973876243
-0.21392368522034658,-0.2533783517765906,-2.3341065830363004
-0.21701982939132114,-0.2507374623759682,-2.3341378822176235
-0.22008334623642997,-0.24805871046623484,-2.334168890194782
-0.22311377193279971,-0.24534249897018073,-2.334199602274658
-0.22611064762966998,-0.24258923651263892,-2.334230013808551
-0.22907351951899108,-0.2397993373592095,-2.3342601201928925
-0.23200193890526793,-0.23697322135409743,-2.3342899168699525
-0.23489546227463942,-0.2341113138570729,-2.33431939932854
-0.23775365136318166,-0.2312140456795648,-2.334348563104697
-0.24057607322442404,-0.22828185301989476,-2.3343774037823857
-0.24336230029606654,-0.22531517739766435,-2.334405916994169
-0.24611191046588837,-0.22231446558730159,-2.3344340984218803
-0.24882448713683575,-0.2192801695507801,-2.3344619437972898
-0.25149961929127906,-0.2162127463695196,-2.3344894489027626
-0.2541369015544286,-0.2131126581754774,-2.3345166095719074
-0.2567359342568985,-0.20998037208144205,-2.334543421690219
-0.2592963234964075,-0.20681636011054086,-2.334569881195712
-0.26181768119860793,-0.20362109912496934,-2.3345959840795483
-0.2642996251770327,-0.20039507075395477,-2.334621726386654
-0.2667417791921478,-0.1971387613209668,-2.3346471042163315
-0.269143773009505,-0.1938526617701814,-2.3346721137228585
-0.27150524245697955,-0.1905372675922159,-2.334696751116084
-0.27382582948108997,-0.18719307874913907,-2.3347210126620124
-0.27610518220238345,-0.18382059959877534,-2.3347448946833818
-0.2783429549698832,-0.18042033881830855,-2.3347683935602292
-0.28053880841458645,-0.17699280932719974,-2.334791505730452
-0.28269240950200336,-0.1735385282094319,-2.334814227690357
-0.28480343158372995,-0.17005801663509254,-2.3348365559952047
-0.2868715544480444,-0.16655179978130427,-2.3348584872597375
-0.28889646436952143,-0.16302040675251855,-2.3348800181587084
-0.2908778541576511,-0.1594643705001855,-2.33490114542739
-0.2928154232044609,-0.1558842277418074,-2.3349218658620843
-0.29470887753112573,-0.15228051887939573,-2.3349421763206157
-0.29655792983356416,-0.14865378791733624,-2.3349620737228185
-0.2983622995270094,-0.14500458237968333,-2.3349815550510122
-0.3001217127895489,-0.1413334532268898,-2.335000617350471
-0.30183590260462656,-0.1376409547719879,-2.335019257729882
-0.3035046088024958,-0.1339276445962355,-2.3350374733617874
-0.30512757810062296,-0.13019408346424008,-2.33505526148303
-0.3067045641430286,-0.12644083523857216,-2.3350726193951767
-0.30823532753856386,-0.1226684667938828,-2.335089544464938
-0.3097196358981123,-0.11887754793054142,-2.3351060341245766
-0.3111572638707141,-0.11506865128780108,-2.3351220858723063
-0.31254799317860327,-0.11124235225651281,-2.3351376972726765
-0.31389161265115484,-0.10739922889139476,-2.3351528659569536
-0.3151879182577341,-0.10353986182287792,-2.3351675896234863
-0.3164367131394438,-0.09966483416853572,-2.335181866038065
-0.31763780763976235,-0.09577473144411454,-2.335195693034266
-0.31879101933406967,-0.09187014147418017,-2.3352090685137883
-0.3198961730580541,-0.08795165430239298,-2.3352219904467804
-0.32095310093499624,-0.08401986210142538,-2.3352344568721537
-0.3219616424019252,-0.08007535908253613,-2.3352464658978893
-0.3229216442346419,-0.07611874140481956,-2.335258015701329
-0.32383296057160665,-0.07215060708413669,-2.3352691045294613
-0.324695452936685,-0.06817155590175157,-2.3352797306991904
-0.3255089902607502,-0.06418218931267854,-2.3352898925976007
-0.3262734489021357,-0.060183110353763516,-2.3352995886822048
-0.3269887126659379,-0.05617492355150707,-2.3353088174811854
-0.32765467282216176,-0.05215823482964708,-2.3353175775936226
-0.3282712281227099,-0.04813365141651643,-2.335325867689712
-0.32883828481720856,-0.04410178175218968,-2.3353336865109706
-0.3293557566676713,-0.04006323539543214,-2.335341032870433
-0.32982356496199594,-0.03601862293046731,-2.3353479056528386
-0.33024163852629146,-0.031968555873580405,-2.335354303814799
-0.3306099137360353,-0.027913646579566236,-2.3353602263849638
-0.3309283345260574,-0.023854508148044875,-2.3353656724641736
-0.33119685239934876,-0.01979175432965106,-2.3353706412255955
-0.33141542643469507,-0.015725999432121454,-2.3353751319148555
-0.33158402329313175,-0.01165785822628728,-2.3353791438501514
-0.3317026172232207,-0.0075879458519908256,-2.3353826764223635
-0.33177119006514744,-0.003516877723941663,-2.335385729095147
-0.3317897312536375,0.000554730562473484,-2.335388301405014
-0.3317582378196923,0.0046262633254132565,-2.3353903929614095
-0.3316767143911431,0.008697104890820614,-2.3353920034467683
-0.33154517319202426,0.012766639686659862,-2.335393132616566
-0.3313636340407642,0.016834252337143973,-2.335393780299358
-0.3311321243471961,0.020899327756928,-2.335393946396804
-0.3308506791083869,0.024961251245262887,-2.335393630883685
-0.3305193409032874,0.029019408580085358,-2.335392833807906
-0.33013815988620193,0.033073186112036364,-2.3353915552904905
-0.32970719377908086,0.03712197085838951,-2.3353897955255585
-0.3292265078626356,0.041165150596873694,-2.3353875547803
-0.3286961749662785,0.04520211395937602,-2.3353848333949303
-0.328116275456889,0.04923225052551118,-2.3353816317826395
-0.32748689722640717,0.05325495091604135,-2.3353779504295265
-0.32680813567825834,0.057269606886128456,-2.3353737898945233
-0.32608009371260954,0.0612756114184112,-2.3353691508093104
-0.32530288171046107,0.06527235881588282,-2.3353640338782164
-0.32447661751657464,0.06925924479456402,-2.3353584398781084
-0.3236014264212436,0.07323566657594738,-2.3353523696582728
-0.3226774411409044,0.07720102297920549,-2.335345824140282
-0.32170480179759636,0.08115471451314492,-2.335338804317851
-0.3206836558972704,0.08509614346789068,-2.3353313112566854
-0.319614158306952,0.08902471400628718,-2.3353233460943104
-0.31849647123076147,0.09293983225500282,-2.3353149100398998
-0.3173307641847952,0.0968409063953224,-2.3353060043740848
-0.31611721397087383,0.10072734675360968,-2.335296630448756
-0.3148560046491585,0.10459856589143306,-2.3352867896868528
-0.31354732750964426,0.10845397869533122,-2.3352764835821422
-0.3121913810425304,0.11229300246621282,-2.335265713698988
-0.3107883709074774,0.11611505700836833,-2.3352544816721066
-0.30933850990175155,0.11991956471808571,-2.335242789206313
-0.30784201792726545,0.12370595067185426,-2.335230638076255
-0.3062991219565193,0.12747364271413858,-2.335218030126141
-0.3047100559974467,0.13122207154471663,-2.335204967269451
-0.3030750610571747,0.13495067080555884,-2.33519145148864
-0.30139438510469907,0.1386588771672438,-2.335177484834829
-0.29966828303248705,0.1423461304148874,-2.335163069427489
-0.2978970166170078,0.14601187353358128,-2.3351482074541114
-0.29608085447820276,0.14965555279331821,-2.335132901169866
-0.29422007203789796,0.15327661783339877,-2.335117152897256
-0.2923149514771689,0.15687452174629904,-2.335100965025752
-0.290365781692663,0.16044872116099188,-2.335084340011426
-0.2883728582518871,0.16399867632570608,-2.3350672803765673
-0.2863364833474691,0.16752385119010818,-2.335049788709295
-0.28425696575039866,0.1710237134868997,-2.335031867663151
-0.282134620762258,0.17449773481281033,-2.3350135199566955
-0.27996977016644686,0.17794539070898086,-2.3349947483730804
-0.2777627421784147,0.1813661607407166,-2.334975555759621
-0.2755138713949025,0.18475952857660624,-2.334955945027353
-0.2732234987422089,0.1881249820669855,-2.334935919150583
-0.27089197142348326,0.19146201332174215,-2.334915481166427
-0.2685196428650601,0.1947701187874415,-2.3348946341743413
-0.26610687266183874,0.19804879932376745,-2.33487338133564
-0.26365402652172043,0.2012975602792647,-2.3348517258730093
-0.2611614762091123,0.2045159115663667,-2.334829671070007
-0.25862959948750364,0.20770336773570577,-2.3348072202705534
-0.25605878006113103,0.21085944804968504,-2.334784376878417
-0.25344940751573336,0.2139836765553082,-2.3347611443566842
-0.2508018772584149,0.21707558215625025,-2.3347375262272276
-0.24811659045661935,0.220134698684163,-2.334713526070161
-0.24539395397623073,0.22316056496919895,-2.3346891475232834
-0.2426343803188063,0.22615272490974933,-2.33466439428152
-0.23983828755795647,0.2291107275413786,-2.33463927009635
-0.23700609927487856,0.23203412710495067,-2.3346137787752284
-0.23413824449305606,0.23492248311393346,-2.334587924180996
-0.23123515761213684,0.2377753604208714,-2.334561710231287
-0.2282972783409958,0.24059232928301832,-2.3345351408979202
-0.22532505162999894,0.24337296542711676,-2.3345082202062897
-0.2223189276024743,0.2461168501133188,-2.3344809522347405
-0.21927936148540683,0.24882357019823362,-2.3344533411139454
-0.21620681353936205,0.2514927181970975,-2.334425391026261
-0.2131017489876572,0.25412389234505156,-2.334397106205091
-0.20996463794478376,0.25671669665752367,-2.3343684909342275
-0.20679595534410036,0.2592707409896996,-2.3343395495471935
-0.20359618086480283,0.2617856410950805,-2.3343102864265783
-0.200365798858184,0.26426101868311375,-2.3342807060033586
-0.19710529827319945,0.26669650147588925,-2.334250812756221
-0.19381517258134381,0.2690917232638957,-2.3342206112108683
-0.19049591970085838,0.271446323960824,-2.3341901059393275
-0.18714804192027423,0.2737599496574153,-2.334159301559246
-0.18377204582131068,0.27603225267433895,-2.33412820273318
-0.18036844220113438,0.27826289161410084,-2.334096814167881
-0.17693774599399903,0.28045153141196594,-2.33406514061357
-0.17348047619227064,0.28259784338589583,-2.334033186863211
-0.16999715576685887,0.28470150528548716,-2.334000957751773
-0.1664883115870608,0.2867622013399083,-2.33396845815549
-0.16295447433983296,0.28877962230482734,-2.3339356929911093
-0.15939617844850668,0.29075346550832,-2.333902667215144
-0.1558139619909536,0.2926834348957584,-2.333869385823106
-0.15220836661722292,0.29456924107366705,-2.333835853848746
-0.14857993746665435,0.2964106013525457,-2.3338020763632796
-0.14492922308448936,0.2982072397886486,-2.3337680584746114
-0.141256775337985,0.29995888722471786,-2.333733805326552
-0.13756314933205227,0.30166528132966275,-2.333699322098033
-0.13384890332442562,0.3033261666371809,-2.333664614002313
-0.13011459864037977,0.3049412945833162,-2.333629686286181
-0.1263607995870104,0.30651042354294605,-2.3335945442291535
-0.12258807336708523,0.30803331886519764,-2.333559193142669
-0.11879698999248767,0.30950975290778265,-2.333523638369275
-0.11498812219725825,0.31093950507025125,-2.333487885281813
-0.11116204535025612,0.31232236182615714,-2.3334519392825994
-0.10731933736744555,0.3136581167541317,-2.333415805802598
-0.1034605786238306,0.31494657056786196,-2.333379490300596
-0.09958635186504222,0.31618753114496917,-2.333342998262366
-0.0956972421186011,0.31738081355478437,-2.3333063351998344
-0.09179383660486268,0.31852624008501706,-2.333269506650241
-0.08787672464766125,0.31962364026731394,-2.3332325181752913
-0.08394649758467033,0.32067285090170394,-2.3331953753603156
-0.08000374867748558,0.3216737160799292,-2.3331580838134145
-0.07604907302145376,0.3226260872076541,-2.333120649164608
-0.07208306745525232,0.3235298230255561,-2.3330830770649773
-0.068106330470243,0.32438478962929046,-2.333045373185807
-0.06411946211960447,0.3251908604883305,-2.3330075432177235
-0.06012306392726697,0.3259479164636788,-2.3329695928698304
-0.05611773879665421,0.3266558458244491,-2.332931527868838
-0.05210409091925571,0.3273145442633168,-2.332893353958199
-0.0480827256830359,0.3279239149108356,-2.3328550768972356
-0.04405424958069783,0.3284838683486211,-2.332816702460265
-0.04001927011781776,0.32899432262139733,-2.332778236435721
-0.03597839572085824,0.32945520324790833,-2.3327396846252832
-0.031932235645082234,0.3298664432306915,-2.3327010528429932
-0.0278813998823735,0.3302279830647136,-2.332662346914376
-0.023826499068986484,0.3305397707448684,-2.3326235726755558
-0.019768144393230686,0.330801761772336,-2.3325847359723766
-0.015706947503112693,0.33101391915980294,-2.3325458426595143
-0.011643520413940936,0.33117621343554504,-2.332506898599594
-0.007578475415916062,0.331288622646371,-2.332467909662302
-0.0035124249817137573,0.3313511323594287,-2.3324288817235006
0.0005540183259229771,0.33136373566287475,-2.3323898206643396
0.004620241946565221,0.3313264331654071,-2.3323507323703687
0.008685633414446519,0.33123923299466307,-2.332311622730649
0.012749580450755185,0.3311021507944827,-2.3322724976368656
0.01681147105586604,0.3309152097210396,-2.332233362982439
0.02087069360148821,0.3306784404378408,-2.3321942246616363
0.024926636922724607,0.3303918811095954,-2.3321550885686824
0.02897869041002013,0.33005557739495817,-2.332115960596875
0.03302624410099208,0.3296695824381443,-2.332076846637693
0.03706868877212624,0.32923395685942314,-2.332037752579917
0.04110541603032187,0.32874876874448855,-2.331998684308735
0.04513581840427925,0.328214093632712,-2.3319596477048634
0.04915928943570731,0.3276300145042781,-2.331920648643661
0.053175223770346856,0.32699662176620886,-2.3318816929942487
0.05718301724878666,0.3263140132372751,-2.3318427866186227
0.06118206699706837,0.3255822941318029,-2.3318039353707802
0.06517177151705736,0.32480157704237506,-2.3317651450958374
0.06915153077657551,0.3239719819214323,-2.3317264216291553
0.07312074629927383,0.3230936360617783,-2.331687770795463
0.07707882125423839,0.3221666740759913,-2.331649198407985
0.08102516054531432,0.32119123787474657,-2.331610710267569
0.08495917090013111,0.3201674766440549,-2.331572312161822
0.08888026095882375,0.3190955468214196,-2.3315340098642383
0.09278784136242775,0.3179756120709176,-2.3314958091333375
0.09668132484094448,0.31680784325720907,-2.331457715711805
0.10056012630105438,0.31559241841848,-2.3314197353256305
0.10442366291347475,0.3143295227383229,-2.331381873683254
0.10827135419994059,0.3130193485165602,-2.3313441364747134
0.11210262211980412,0.311662095139016,-2.3313065293707917
0.11591689115623256,0.31025796904624153,-2.331269058022175
0.11971358840199815,0.30880718370119914,-2.3312317280586052
0.12349214364484545,0.3073099595559103,-2.331194545088042
0.12725198945242105,0.30576652401707605,-2.3311575146958274
0.1309925612567596,0.3041771114106702,-2.331120642443852
0.1347132974383068,0.30254196294551794,-2.331083933869726
0.13841363940947463,0.3008613266758606,-2.3310473944859567
0.14209303169770915,0.29913545746291625,-2.331011029779124
0.14575092202806747,0.2973646169354408,-2.3309748452090684
0.14938676140528281,0.29554907344929704,-2.3309388462080745
0.15300000419531584,0.2936891020460374,-2.330903038180067
0.15659010820637081,0.29178498441050904,-2.330867426499803
0.16015653476937328,0.289837008827486,-2.3308320165120793
0.1636987488178939,0.2878454701373367,-2.330796813530932
0.1672162189675055,0.28581066969073515,-2.3307618228388507
0.17070841759456787,0.2837329153024198,-2.330727049685996
0.1741748209144217,0.28161252120401176,-2.330692499289418
0.1776149090589888,0.27944980799589636,-2.330658176832281
0.181028166153759,0.2772451025981789,-2.3306240874630992
0.18441408039416174,0.2749987382007185,-2.3305902362949715
0.1877721441213035,0.2727110542122531,-2.330556628404823
0.19110185389706755,0.2703823962086186,-2.3305232688326547
0.19440271057855912,0.2680131158800741,-2.3304901625807943
0.19767421939189125,0.2656035709777396,-2.330457314613162
0.20091589000529766,0.2631541252591546,-2.3304247298545286
0.20412723660156235,0.2606651484329682,-2.3303924131897924
0.20730777794975874,0.2581370161027652,-2.3303603694632535
0.21045703747628414,0.2555701097100427,-2.330328603477902
0.21357454333518505,0.25296481647633967,-2.3302971199947033
0.2166598284777571,0.25032152934453433,-2.3302659237318983
0.21971243072141727,0.24764064691931337,-2.3302350193643053
0.22273189281783146,0.2449225734068274,-2.330204411522632
0.22571776252029513,0.2421677185535355,-2.330174104792788
0.22866959265035144,0.2393764975842552,-2.330144103715214
0.23158694116364242,0.23654933113942206,-2.3301144127842055
0.23446937121498268,0.23368664521156962,-2.330085036447257
0.23731645122264408,0.23078887108104335,-2.330055979104403
0.2401277549318485,0.2278564452509502,-2.3300272451075688
0.24290286147745274,0.22488980938136377,-2.329998838759932
0.2456413554458244,0.22188941022278505,-2.3299707643152883
0.2483428269358935,0.21885569954887704,-2.3299430259774243
0.2510068716193768,0.2157891340884777,-2.3299156278994997
0.2536330908001645,0.21269017545690375,-2.329888574183436
0.25622109147286054,0.2095592900865563,-2.3298618688793145
0.2587704863804693,0.2063969491568377,-2.3298355159847794
0.2612808940712221,0.20320362852338875,-2.32980951944445
0.2637519389545347,0.19997980864665924,-2.329783883149344
0.2661832513560866,0.19672597451982213,-2.3297586109363
0.2685744675720193,0.19344261559603895,-2.329733706587422
0.2709252299222402,0.19013022571509283,-2.329709173829517
0.27323518680283165,0.186789303029393,-2.3296850163335514
0.2755039927375512,0.1834203499293689,-2.3296612377141126
0.27773130842842236,0.1800238729682591,-2.329637841528877
0.27991680080540543,0.1766003827863087,-2.329614831278091
0.28206014307514227,0.17315039403438634,-2.329592210404053
0.28416101476876926,0.16967442529703275,-2.3295699822906144
0.2862191017887927,0.16617299901494897,-2.3295481502626796
0.28823409645501785,0.16264664140693766,-2.3295267175857197
0.29020569754952863,0.15909588239131187,-2.329505687465296
0.29213361036071045,0.155521255506775,-2.3294850630465884
0.2940175467263089,0.15192329783279296,-2.329464847413936
0.2958572250755227,0.1483025499094603,-2.329445043590385
0.2976523704701204,0.14465955565688166,-2.3294256545372467
0.29940271464457946,0.1409948622940721,-2.3294066831536644
0.3011079960452397,0.13730902025739167,-2.3293881322761862
0.30276795986846894,0.1336025831185275,-2.3293700046783576
0.3043823580978305,0.12987610750203196,-2.3293523030703063
0.30595094954025465,0.12613015300243083,-2.3293350300983535
0.30747349986120404,0.12236528210091091,-2.3293181883446232
0.30894978161882974,0.11858206008160492,-2.329301780326666
0.31037957429711566,0.11478105494747674,-2.3292858084970915
0.3117626643380026,0.11096283733582876,-2.3292702752432093
