-1.0853527596289334,-0.9432995791731803,-2.180950167932836
-1.0968197950275023,-0.9298867318128734,-2.1808965284792508
-1.1081200105007358,-0.9163336146276976,-2.1808407604142612
-1.119251684077454,-0.9026423190021412,-2.1807828724624563
-1.130213120418648,-0.8888149576108185,-2.1807228736786803
-1.141002651084222,-0.8748536640691408,-2.1806607734464594
-1.1516186347949118,-0.8607605925805645,-2.1805965814763764
-1.1620594576893135,-0.846537917580494,-2.1805303078043865
-1.1723235335760005,-0.8321878333768924,-2.180461962790077
-1.1824093041806674,-0.8177125537877058,-2.180391557114878
-1.1923152393882765,-0.8031143117751387,-2.1803191017802104
-1.2020398374801404,-0.788395359076893,-2.180244608105584
-1.2115816253659362,-0.7735579658344132,-2.180168087726645
-1.2209391588105736,-0.7586044202182427,-2.180089552593163
-1.2301110226559187,-0.7435370280505428,-2.1800090149669713
-1.2390958310373017,-0.7283581124248742,-2.1799264874198525
-1.2478922275948037,-0.7130700133233037,-2.179841982831373
-1.2564988856792751,-0.6976750872309149,-2.1797555143866667
-1.264914508553047,-0.6821757067478185,-2.1796670955741644
-1.2731378295853273,-0.6665742601987116,-2.1795767401832786
-1.2811676124422275,-0.6508731512401013,-2.179484462302035
-1.2890026512714141,-0.6350747984652344,-2.1793902763146544
-1.2966417708813374,-0.6191816350068508,-2.179294196899089
-1.3040838269150343,-0.6031961081378047,-2.179196239024508
-1.3113277060184592,-0.5871206788696699,-2.179096417948735
-1.3183723260033429,-0.570957821549374,-2.1789947492156423
-1.3252166360045365,-0.5547100234539785,-2.178891248652496
-1.331859616631837,-0.538379784383655,-2.178785932367254
-1.3383002801162724,-0.5219696162529541,-2.1786788167458235
-1.3445376704508163,-0.5054820426804575,-2.1785699184492695
-1.350570863525542,-0.4889195985768653,-2.1784592544109826
-1.3563989672571735,-0.47228482973163877,-2.1783468418337995
-1.3620211217130398,-0.45558029239824127,-2.1782326981870868
-1.3674364992294141,-0.43880855287809695,-2.178116841203777
-1.3726443045242263,-0.42197218710331125,-2.177999288877367
-1.3776437748041388,-0.40507378021827334,-2.177880059458874
-1.3824341798659865,-0.3881159261601827,-2.177759171453752
-1.3870148221925611,-0.3711012272386214,-2.177636643618769
-1.3913850370427452,-0.3540322937142204,-2.177512494958848
-1.3955441925359873,-0.33691174337651497,-2.177386744723861
-1.3994916897311174,-0.3197422011210835,-2.1772594124054003
-1.4032269626994993,-0.3025262985260179,-2.177130517733499
-1.406749478592522,-0.285266673427848,-2.1770000806733263
-1.4100587377034317,-0.2679659694969575,-2.1768681214218395
-1.4131542735235016,-0.25062683581261436,-2.176734660404407
-1.4160356527925546,-0.2332519264376556,-2.176599718271395
-1.418702475543829,-0.21584389999294523,-2.176463315894725
-1.3833465913292695,-0.193127126226308,-2.176072993812906
-1.3855260904146853,-0.17612582257809342,-2.1759374547257706
-1.3874957981633242,-0.15910001379394592,-2.1758005561395195
-1.3892554538552324,-0.14205230034603572,-2.175662319183025
-1.3908048292861,-0.1249852851048201,-2.175522765183728
-1.3921437287789582,-0.10790157292571778,-2.1753819156641176
-1.3932719891904684,-0.09080377023605826,-2.175239792338183
-1.3941894799118069,-0.07369448462238073,-2.1750964171078384
-1.3948961028641655,-0.05657632441815653,-2.174951812059323
-1.3953917924888863,-0.03945189829200903,-2.1748059994595765
-1.3956765157322406,-0.022323814836504065,-2.1746590017525875
-1.3957502720248742,-0.005194682157583122,-2.1745108415557213
-1.3956130932559412,0.011932892535284777,-2.174361541656024
-1.39526504374194,0.029056303338170095,-2.1742111250065053
-1.3947062201902751,0.046172946060885005,-2.1740596147223945
-1.3939367516575711,0.06328021863425962,-2.1739070340773874
-1.3929567995027559,0.08037552151641823,-2.1737534064998583
-1.3917665573349405,0.09745625809798693,-2.173598755569066
-1.3903662509561217,0.11451983510616343,-2.173443105011336
-1.3887561382987281,0.13156366300758093,-2.173286478696219
-1.386936509358048,0.1485851564098986,-2.1731289006326477
-1.3849076861195504,0.16558173446205174,-2.1729703949650596
-1.3826700224811468,0.18255082125309186,-2.1728109859695173
-1.3802239041704076,0.19948984620956037,-2.172650698049808
-1.3775697486567737,0.21639624449131845,-2.1724895557335326
-1.3747080050587897,0.23326745738577737,-2.1723275836681752
-1.3716391540463968,0.250100932700463,-2.1721648066171673
-1.3683637077383097,0.2668941251538518,-2.1720012494559375
-1.3648822095945208,0.2836444967644148,-2.171836937167946
-1.3611952343039622,0.3003495172378109,-2.1716718948407157
-1.3573033876673581,0.31700666435216646,-2.17150614766185
-1.3532073064753114,0.33361342434138047,-2.1713397209150376
-1.3489076583816562,0.35016729227640153,-2.17117263997606
-1.3444051417721148,0.3666657724444073,-2.1710049303087793
-1.3397004856282997,0.38310637872584435,-2.1708366174611258
-1.3347944493870965,0.39948663496925646,-2.17066772706108
-1.3296878227954738,0.4158040753638536,-2.170498284812647
-1.3243814257607522,0.4320562448097654,-2.170328316491823
-1.3188761081963813,0.4482406992859229,-2.1701578479425683
-1.3131727498632628,0.46435500621551595,-2.1699869050727627
-1.3072722602066627,0.4803967448289739,-2.169815513850172
-1.3011755781887555,0.4963635065244165,-2.169643700298403
-1.2948836721168442,0.5122528952255244,-2.169471490492859
-1.288397539467303,0.5280625277367806,-2.1692989105566993
-1.281718206705282,0.5437900340960279,-2.169125986656797
-1.274846729100222,0.5594330579243036,-2.1689527449996895
-1.2677841905372291,0.574989256772893,-2.168779211827545
-1.2605317033243464,0.5904563024675614,-2.168605413414118
-1.2530904079957799,0.6058318814499171,-2.168431376060716
-1.2454614731111142,0.6211136951158593,-2.1682571260921626
-1.2376460950505783,0.6362994601510679,-2.1680826898527736
-1.2296454978063986,0.6513869088634906,-2.167908093702328
-1.2214609327702948,0.6663737895127857,-2.1677333640120513
-1.21309367851716,0.6812578666366788,-2.167558527160602
-1.2045450405849865,0.6960369213741896,-2.1673836095300634
-1.1958163512510702,0.7107087517856969,-2.1672086375019473
-1.1869089693045587,0.7252711731697917,-2.167033637453199
-1.1778242798153833,0.7397220183768896,-2.1668586357522166
-1.1685636938996293,0.754059138119558,-2.1666836587548746
-1.1591286484813965,0.7682804012795296,-2.1665087328005614
-1.149520606051196,0.782383695211356,-2.1663338842082225
-1.1397410544209388,0.7963669260426783,-2.1661591392724184
-1.129791506475567,0.8102280189710709,-2.165984524259392
-1.1196734999213787,0.8239649185574316,-2.1658100654031456
-1.1093885970310937,0.8375755890158841,-2.1656357889015374
-1.0989383843857259,0.8510580145001584,-2.1654617209123828
-1.0883244726132923,0.8644101993864262,-2.165287887549573
-1.077548496124437,0.8776301685525529,-2.16511431487921
-1.0666121128449981,0.8907159676537436,-2.1649410289157496
-1.0900733124156297,0.9332505486226591,-2.235639858172178
-1.0781063329147926,0.9461775966326732,-2.234743397507583
-1.0659887776773365,0.9589537592668697,-2.2338521079329534
-1.0537225770385712,0.9715773715979245,-2.232966112001153
-1.041309677343278,0.9840467939435208,-2.2320855312324057
-1.028752040607656,0.996360411956921,-2.2312104861033752
-1.016051644182708,1.0085166367129834,-2.230341096036516
-1.0032104804191289,1.0205139047896994,-2.229477479389685
-0.9902305563337354,1.0323506783453313,-2.2286197534460115
-0.9771138932775083,1.0440254451912283,-2.2277680344040234
-0.9638625266052837,1.055536718860399,-2.226922437368029
-0.9504785053471421,1.0668830386719232,-2.226083076338743
-0.9369638918815443,1.0780629697912767,-2.22525006420416
-0.9233207616102544,1.0890751032866566,-2.2244235127306777
-0.90955120263509,1.0999180561813786,-2.223603532554448
-0.8956573154365366,1.1105904715024304,-2.22279023317297
-0.8816412125542669,1.1210910183252636,-2.2219837229369195
-0.8675050182695936,1.1314183918148923,-2.2211841090421953
-0.8532508682898888,1.1415713132633971,-2.2203914975222023
-0.8388809094350019,1.1515485301238908,-2.2196059932403513
-0.8243972993256989,1.161348816041043,-2.2188276998827723
-0.8098022060741548,1.170970970878236,-2.2180567199512526
-0.7950978079765142,1.1804138207414248,-2.217293154756373
-0.7802862932075492,1.1896762179997902,-2.2165371044108606
-0.7653698595174272,1.1987570413032518,-2.2157886678231393
-0.7503507139306124,1.2076551955969284,-2.2150479426910814
-0.7352310724469068,1.2163696121326106,-2.214315025495953
-0.7200131597446575,1.2248992484773356,-2.2135900114965557
-0.7046992088861264,1.233243088519125,-2.2128729947235493
-0.6892914610250456,1.2414001424699732,-2.212164067973966
-0.6737921651163559,1.2493694468661538,-2.211463322805901
-0.6582035776281411,1.2571500645659175,-2.210770849533377
-0.6425279622557581,1.264741084744659,-2.210086737221392
-0.626767589638167,1.2721416228876192,-2.2094110736811237
-0.6109247370764629,1.2793508207802005,-2.2087439454653097
-0.5950016882546042,1.2863678464959578,-2.208085437863782
-0.5790007329623419,1.2931918943823428,-2.207435634899166
-0.5629241668203372,1.2998221850442668,-2.2067946193227286
-0.5467742910074671,1.306257965325547,-2.2061624726103797
-0.5305534119903109,1.3124985082883098,-2.205539274958822
-0.5142638412548045,1.3185431131904122,-2.204925105281839
-0.49790789504005706,1.3243911054609467,-2.2043200412067327
-0.48148789407431264,1.3300418366738982,-2.203724159070885
-0.4650061633130491,1.3354946845200089,-2.2031375339184627
-0.448465031679197,1.3407490527769188,-2.2025602394972448
-0.4318668318054609,1.3458043712776406,-2.20199234825558
-0.4152138997787294,1.3506600958774273,-2.2014339313394635
-0.3985085748865533,1.355315708419096,-2.200885058589734
-0.3817531993656699,1.3597707166968587,-2.2003457985393875
-0.36495011815255807,1.3640246544187213,-2.1998162184109984
-0.3481016786359962,1.3680770811675054,-2.1992963841142563
-0.33121023041160275,1.3719275823605446,-2.198786360243604
-0.31427812503833547,1.3755757692081094,-2.198286210075976
-0.2973077157969196,1.379021278670615,-2.1977959955686455
-0.28030135745018425,1.3822637734146563,-2.1973157773571526
-0.2632614060052755,1.3853029417679252,-2.196845614753342
-0.2461902184777183,1.3881384976730529,-2.196385565743478
-0.22909015265730007,1.3907701806404285,-2.1959356869864517
-0.2119635668757405,1.3931977557000357,-2.195496033812074
-0.19481281977612286,1.3954210133523517,-2.1950666602194437
-0.17764027008404965,1.3974397695183547,-2.1946476188754036
-0.16044827638049222,1.399253865488674,-2.1942389611130606
-0.14323919687629966,1.400863167871931,-2.1938407369303885
-0.12601538918833435,1.4022675685423036,-2.1934529949888955
-0.10877921011719519,1.4034669845863545,-2.193075782612363
-0.09153301542649807,1.4044613582491565,-2.192709145785644
-0.07427915962367353,1.4052506568797525,-2.192353129153533
-0.05701999574224518,1.4058348728759826,-2.192007776019686
-0.039757875125554065,1.4062140236287068,-2.1916731283456072
-0.022495147211885225,1.4063881514654581,-2.191349226749685
-0.005234159320964934,1.4063573235935531,-2.191036110506284
0.0120227435582155,1.4061216320426875,-2.190733817544891
0.029273218978287094,1.4056811936070432,-2.190442384449303
0.04651492724314002,1.4050361497869326,-2.1901618464568706
0.06374553161635475,1.4041866667300003,-2.1898922374577796
0.0809626985284619,1.4031329351720092,-2.189633589994379
0.09816409778307623,1.4018751703772292,-2.1893859352605523
0.11534740276194416,1.4004136120784452,-2.189149303101124
0.13251029062894656,1.3987485244166074,-2.188923722011307
0.1496504425330968,1.3968801958801376,-2.1887092191361868
0.16676554381058062,1.3948089392439047,-2.188505820270237
0.1838532841858728,1.392535091507886,-2.1883135498568733
0.20091135797197823,1.3900590138355284,-2.1881324309880332
0.2179374642698374,1.387381091491813,-2.187962485403793
0.23492930716693736,1.3845017337810426,-2.1878037334920086
0.2518845959351741,1.3814213739843486,-2.187656194287987
0.26880104522800374,1.378140469296936,-2.1875198854741837
0.2856763752769286,1.3746595007650633,-2.1873948233799276
0.30250831208735823,1.3709789732227653,-2.187281022981169
0.319294587633887,1.3670994152283191,-2.1871784979002515
0.33603294005503453,1.3630213790004557,-2.1870872604057108
0.3527211138474832,1.3587454403543187,-2.18700732141209
0.3693568600598615,1.354272198637165,-2.1869386904797827
0.38593793648611036,1.3496022766638076,-2.1868813758148917
0.40246210785847547,1.3447363206517937,-2.186835384269112
0.4189271460401645,1.3396750001563176,-2.1868007213396337
0.4353308302177152,1.3344190080048544,-2.186777391169065
0.4516709470931051,1.3289690602315112,-2.1867653965453693
0.4679452910756538,1.3233258960110865,-2.186764738901832
0.484151664473748,1.3174902775928243,-2.1867754183170347
0.5002878776864346,1.3114629902338522,-2.186797433514859
0.5163517493949182,1.3052448421322895,-2.1868307818645008
0.5323411067540019,1.2988366643600138,-2.1868754593805084
0.5482537855835071,1.2922393107950638,-2.1869314607228407
0.5640876305597138,1.285453658053668,-2.1869987791969385
0.579840495406853,1.2784806054218767,-2.1870774067538252
0.5955102430886934,1.2713210747867771,-2.1871673339902182
0.6110947460002519,1.2639760105672762,-2.187268550148668
0.6265918861596664,1.25644637964442,-2.187381043117713
0.641999555400265,1.2487331712912373,-2.187504799432062
0.657315655562864,1.24083739710207,-2.18763980427279
0.6725380986883291,1.2327600909213807,-2.187786041467569
0.6876648072104304,1.2245023087719924,-2.1879434934909114
0.7026937141490236,1.2160651287827478,-2.188112141464446
0.7176227633035894,1.2074496511155521,-2.1882919651572164
0.732449909447157,1.1986569978917674,-2.188482942986006
0.7471731185206462,1.1896883131179328,-2.188685052015694
0.7617903678276505,1.1805447626107717,-2.188898267959635
0.7762996462296948,1.1712275339214595,-2.1891225651800745
0.790698954341988,1.1617378362591115,-2.189357916688595
0.8049863047296992,1.1520769004134581,-2.189604294146592
0.8191597221047824,1.1422459786766683,-2.1898616678657876
0.8332172435233728,1.1322463447642903,-2.190130006808781
0.8471569185837745,1.1220792937352615,-2.190409278589632
0.8609768096250662,1.1117461419109533,-2.1906994494744896
0.8746749919263401,1.101248226793214,-2.19100048438226
0.888249553906598,1.0905869069813585,-2.1913123468853137
0.901698597325319,1.0797635620880714,-2.1916349992102444
0.915020237483718,1.0687795926541768,-2.19196840223867
0.9282126034267111,1.057636420062229,-2.1923125155080823
0.9412738381456016,1.0463354864488827,-2.1926672972127506
0.9542020987815008,1.0348782546159951,-2.1930327042046764
0.9669955568294964,1.0232662079404116,-2.193408691994605
0.9796523983435775,1.0115008502823915,-2.19379521475309
0.9921708241423304,0.9995837058926227,-2.1941922253116273
1.0045490500154086,0.9875163193177788,-2.19459967516384
1.016785306930788,0.9753002553045648,-2.1950175144667377
1.0288778412428108,0.9629370987022071,-2.1954456920420373
1.0408249149010256,0.9504284543633321,-2.1958841553775557
1.0526248056598229,0.9377759470431856,-2.1963328506286763
1.06427580728887,0.9249812212971356,-2.1967917226198894
1.0757762297843492,0.9120459413764134,-2.19726071484641
1.0871243995809883,0.8989717911220322,-2.197739769475878
1.0983186597648926,0.8857604738568345,-2.198228827350142
1.1093573702871646,0.872413712275612,-2.1987278279871294
1.1202389081783148,0.8589332483332429,-2.1992367095828045
1.1309616677634464,0.8453208431307933,-2.1997554090132234
1.1415240608782131,0.8315782767995262,-2.200283861836679
1.15192451708554,0.81770734838276,-2.2008220022959524
1.1621614838930872,0.8037098757155255,-2.2013697633206566
1.1722334269714556,0.789587695301959,-2.201927076529695
1.1821388303731064,0.7753426621903792,-2.2024938722338225
1.1918761967519889,0.7609766498459865,-2.203070079438319
1.2014440475838524,0.7464915500211354,-2.203655625845781
1.2108409233872235,0.7318892726231105,-2.204250437859028
1.220065383945027,0.7171717455793604,-2.2048544405841337
1.2291160085268276,0.7023409147001245,-2.2054675578335803
1.2379913961116686,0.6873987435383981,-2.206089712129544
1.246690165611477,0.6723472132471768,-2.2067208247073107
1.255210956095011,0.657188322433925,-2.2073608155188267
1.2635524270123173,0.6419240870122056,-2.2080096032363956
1.2717132584196655,0.6265565400504204,-2.2086671052565077
1.2796921512049297,0.6110877316175978,-2.2093332377038246
1.2874878273133739,0.595519728626175,-2.2100079154353103
1.2950990299738159,0.5798546146717142,-2.2106910520445178
1.3025245239251189,0.5640944898694995,-2.211382559866033
1.3097630956429744,0.5482414706879543,-2.2120823499800766
1.3168135535669379,0.5322976897788277,-2.21279033221728
1.3236747283276649,0.5162652958040911,-2.213506415163619
1.3303454729743065,0.5001464532594889,-2.2142305061655274
1.3368246632020158,0.4839433422946948,-2.2149625113351865
1.3431111975795096,0.46765815853000897,-2.21570233555599
1.349203997776644,0.4512931128695542,-2.216449882488198
1.3551020087919383,0.43485043131090995,-2.2172050545747766
1.3608041991800006,0.4183323547511358,-2.2179677530474264
1.366309561278792,0.4017411387891295,-2.21873787793281
1.3716171114366762,0.38507905352427385,-2.219515328058979
1.376725890239183,0.3683483833513176,-2.2203000010619953
1.3816349627354372,0.3515514267514442,-2.2210917933927714
1.3863434186641743,0.3346904960794786,-2.2218906003241097
1.390850372679285,0.3177679173471872,-2.222696315957962
1.395154964574815,0.3007860300026197,-2.223508833232902
1.3992563595093577,0.2837471867054557,-2.224328043931824
1.4031537482297565,0.2666537530983037,-2.225153838689861
1.4068463472940491,0.24950810757391584,-2.225986107002534
1.4103333992935836,0.23231264103827454,-2.2268247372341357
1.413614173074215,0.21506975666950784,-2.2276696166263386
1.4166879639565173,0.1977818696726009,-2.228520631307057
1.4195540939549212,0.1804514070298602,-2.2293776662995413
1.4222119119956982,0.16308080724709728,-2.23024060553172
1.4246607941337066,0.14567252009549567,-2.2311093318457917
1.4269001437678128,0.12822900634913084,-2.23198372700807
1.4289293918549004,0.11075273751810602,-2.2328636717190804
1.4307479971223782,0.09324619557728059,-2.233749045623922
1.432355446279094,0.07571187269055817,-2.234639727322886
1.433751254224568,0.0581522709307095,-2.23553559438234
1.4349349642564435,0.040569901994706975,-2.236436523345884
1.435906148276062,0.022967286914543215,-2.237342389745772
1.4366644069920707,0.005346955763519374,-2.2382530681146116
1.4372093701219562,-0.012288552642020669,-2.239168431997337
1.4375406965914101,-0.029936691045525196,-2.2400883539634653
1.4376580747314227,-0.0475949040576541,-2.2410127056196307
1.4375612224729997,-0.06526062846829353,-2.241941357622406
1.4372498875394017,-0.08293129356318138,-2.242874179691408
1.4367238476358033,-0.10060432144514517,-2.2438110406226977
1.435982910636252,-0.11827712735996365,-2.2447518083024636
1.43502691476784,-0.13594712002685214,-2.245696349721009
1.4338557287919587,-0.15361170197357768,-2.2466445309870253
1.4324692521825408,-0.17126826987619695,-2.24759621734217
1.43086741530117,-0.1889142149034177,-2.248551273175941
1.4290501795689525,-0.20654692306557612,-2.249509562040852
1.4270175376350311,-0.22416377556822178,-2.250470946667913
1.424769513541632,-0.2417621491702989,-2.2514352889824147
1.3649244896373018,-0.2488765991528742,-2.1615312827237636
1.3618696648025463,-0.26562748683375403,-2.161693266796991
1.3586097596868008,-0.28234098069170976,-2.1618560477546613
1.355145215505157,-0.2990145726393385,-2.1620196014315773
1.351476504080003,-0.31564575937957207,-2.1621839035367567
1.3476041277997932,-0.33223204277760154,-2.162348929656878
1.3435286195733473,-0.34877093023274947,-2.1625146552597596
1.3392505427796577,-0.3652599350502421,-2.1626810556978575
1.3347704912131957,-0.3816965768128265,-2.162848106211787
1.3300890890247135,-0.3980783817521791,-2.163015781933868
1.3252069906575226,-0.4144028831200496,-2.1631840578916917
1.320124880779252,-0.4306676215590922,-2.1633529090117123
1.314843474209065,-0.4468701454733202,-2.163522310122854
1.309363515840343,-0.4630080113981369,-2.1636922359601463
1.3036857805588145,-0.4790787843698809,-2.1638626611683756
1.2978110731561336,-0.49508003829483627,-2.1640335603057577
1.291740228238903,-0.5110093563176458,-2.164204907847632
1.2854741101331253,-0.5268643311890717,-2.164376678190171
1.2790136127840972,-0.5426425656330511,-2.1645488456541138
1.2723596596517277,-0.558341672712982,-2.1647213844885136
1.265513203601287,-0.5739592761971882,-2.1648942688745048
1.2584752267895798,-0.5894930109235033,-2.165067472929089
1.2512467405465475,-0.6049405231629092,-2.165240970708933
1.243828785252292,-0.6202994709821888,-2.1654147362141907
1.236222430209529,-0.6355675246055044,-2.165588743392332
1.228428773511469,-0.6507423667748746,-2.165762966141996
1.2204489419051254,-0.6658216931094685,-2.1659373783168503
1.212284090650062,-0.6808032124636647,-2.1661119537294717
1.203935403372571,-0.6956846472838166,-2.1662866661552376
1.1954040919152988,-0.7104637339636607,-2.1664614893362275
1.186691396182317,-0.7251382231983109,-2.1666363969851443
1.1777985839796457,-0.7397058803367744,-2.1668113627892414
1.1687269508512457,-0.7541644857329323,-2.166986360414264
1.1594778199104716,-0.7685118350949182,-2.1671613635084004
1.1500525416670073,-0.7827457398328465,-2.1673363457062447
1.140452493849294,-0.7968640274048057,-2.167511280632768
1.1306790812224512,-0.8108645416610849,-2.1676861419072986
1.1207337354017144,-0.8247451431865471,-2.167860903147515
1.1106179146613926,-0.8385037096411003,-2.1680355379734375
1.1003331037393664,-0.8521381360982015,-2.168210020011437
1.0898808136371374,-0.865646335381332,-2.168384322898247
1.0792625814154428,-0.8790262383983825,-2.1685584202849784
1.0684799699854572,-0.8922757944738844,-2.168732285841144
1.0575345678955912,-0.9053929716790271,-2.1689058932586858
1.046427989113915,-0.9183757571593978,-2.1690792162560086
1.035161872806211,-0.9312221574603863,-2.169252228582013
1.0237378831096984,-0.9439301988501817,-2.169424904020138
1.0121577089024232,-0.9564979276403139,-2.1695972163923964
1.0004230635683597,-0.9689234105036663,-2.1697691395634227
0.988535684758234,-0.9812047347899033,-2.1699406474445118
0.9764973341460931,-0.9933400088382479,-2.170111713997666
0.9643097971816547,-1.005327362287552,-2.1702823132396367
0.95197488283845,-1.0171649463835917,-2.170452419245967
0.9394944233577982,-1.0288509342835326,-2.1706220061550314
0.9268702739886329,-1.0403835213574977,-2.1707910481720747
0.9141043127232167,-1.0517609254871814,-2.170959519573247
0.9011984400287617,-1.0629813873614489,-2.171127394709633
0.8881545785750078,-1.0740431707688514,-2.1712946480112802
0.8749746729577635,-1.0849445628870118,-2.1714612539912195
0.86166068941847,-1.0956838745688071,-2.1716271872494803
0.8482146155598003,-1.1062594406252937,-2.171792422477101
0.834638460057343,-1.1166696201053141,-2.171956934460126
0.8209342523673989,-1.1269127965717283,-2.172120698083604
0.8071040424309318,-1.1369873783742068,-2.17228368833557
0.7931499003737101,-1.1468917989185268,-2.1724458803110203
0.7790739162026737,-1.1566245169323213,-2.1726072492158783
0.7648781994985817,-1.1661840167272044,-2.1727677703709474
0.750564879104955,-1.1755688084572418,-2.172927419215853
0.7361361028133913,-1.1847774283736807,-2.1730861713129754
0.7215940370452588,-1.1938084390759056,-2.1732440023513613
0.7069408665298434,-1.2026604297585501,-2.173400888150631
0.6921787939789742,-1.2113320164547137,-2.173556804664865
0.6773100397581853,-1.2198218422752274,-2.1737117279864773
0.6623368415544534,-1.2281285776439121,-2.1738656343500726
0.6472614540405648,-1.2362509205287802,-2.1740185001362855
0.6320861485361607,-1.2441875966691172,-2.1741703018756042
0.6168132126655,-1.2519373597984027,-2.1743210162521756
0.6014449500120141,-1.259498991863005,-2.174470620107588
0.5859836797696747,-1.2668713032366092,-2.174619090444639
0.5704317363912598,-1.274053132930318,-2.174766404431083
0.5547914692335429,-1.2810433487983803,-2.1749125394033477
0.5390652421994817,-1.2878408477394956,-2.1750574728702454
0.5232554333774506,-1.2944445558936466,-2.175201182516647
0.5073644346775761,-1.3008534288344054,-2.1753436462071383
0.491394651465238,-1.3070664517566755,-2.1754848419896553
0.4753485021917805,-1.3130826396598123,-2.1756247480990876
0.4592284180225172,-1.318901037526083,-2.1757633429608623
0.4430368424620582,-1.3245207204944178,-2.175900605194498
0.4267762309770562,-1.3299407940294032,-2.176036513617135
0.4104490506163958,-1.3351603940854864,-2.176171047247033
0.39405777962892774,-1.3401786872663277,-2.1763041853070475
0.37760490707877525,-1.3449948709792803,-2.1764359072280657
0.3610929324583054,-1.3496081735849417,-2.1765661926524285
0.3445243652988145,-1.3540178545417385,-2.176695021437305
0.3279017247789985,-1.3582232045455112,-2.1768223736580485
0.31122753933128,-1.3622235456640528,-2.1769482296115137
0.2945043462460447,-1.3660182314665719,-2.1770725698193445
0.2777346912738809,-1.369606647148031,-2.1771953750312254
0.2609211282258589,-1.3729882096483423,-2.1773166262281016
0.2440662185719547,-1.3761623677663668,-2.1774363046253633
0.2271725310376569,-1.3791286022686995,-2.177554391675995
0.2102426411988511,-1.3818864259931964,-2.177670869073686
0.1932791310750424,-1.3844353839472214,-2.1777857187559095
0.17628458872099134,-1.3867750534005712,-2.1778989229069596
0.15926160781683657,-1.3889050439730617,-2.178010463960951
0.14221278725677786,-1.3908249977167386,-2.1781203246047833
0.12514073073639675,-1.392534589192685,-2.1782284877810603
0.10804804633867858,-1.3940335255424092,-2.178334936690975
0.09093734611883475,-1.3953215465537725,-2.1784396547971485
0.07381124568796864,-1.3963984247214511,-2.178542625826434
0.05667236379569814,-1.397263965301892,-2.1786438337726723
0.03952332191177817,-1.3979180063627563,-2.17874326289941
0.022366743806825636,-1.3983604188268182,-2.1788408977425706
0.005205255132212398,-1.3985911065103085,-2.1789367231130865
-0.011958517000791896,-1.398610006155682,-2.179030724099481
-0.029121944442548023,-1.398417087458789,-2.17912288607041
-0.0462823984271681,-1.3980123530904416,-2.1792131946771587
-0.06343724999514505,-1.3973958387123573,-2.179301635856086
-0.08058387041642412,-1.3965676129874658,-2.1793881958310313
-0.09771963161381016,-1.3955277775845705,-2.179472861115668
-0.1148419065866649,-1.3942764671773513,-2.1795556185158107
-0.13194806983477553,-1.392813849437704,-2.179636455131675
-0.1490354977823475,-1.3911401250234015,-2.1797153583600894
-0.16610156920201552,-1.389255527560078,-2.179792315896657
-0.18314366563880294,-1.3871603236175265,-2.179867315737866
-0.20015917183394494,-1.3848548126803062,-2.1799403461831544
-0.21714547614849286,-1.382339327112659,-2.180011395836922
-0.23409997098661825,-1.3796142321177296,-2.180080453610486
-0.2510200532185308,-1.3766799256910984,-2.180147508723996
-0.2679031246029406,-1.3735368385686157,-2.1802125507082892
-0.28474659220895554,-1.370185434168552,-2.1802755694066933
-0.30154786883736884,-1.3666262085280596,-2.180336554976782
-0.3183043734412126,-1.3628596902339574,-2.1803954978920705
-0.33501353154553337,-1.3588864403478425,-2.180452388943664
-0.3516727756662784,-1.3547070523255345,-2.1805072192418478
-0.3682795457282255,-1.3503221519308677,-2.180559980217623
-0.3848312894818689,-1.3457323971438373,-2.1806106636241926
-0.4013254629191799,-1.340938478063113,-2.1806592615383855
-0.41775953068816024,-1.3359411168029358,-2.180705766362031
-0.4341309665061021,-1.3307410673844065,-2.180750170823273
-0.45043725357148656,-1.3253391156211896,-2.180792467977834
-0.4666758849744131,-1.3197360789996488,-2.180832651210217
-0.4828443641055128,-1.3139328065534233,-2.1808707142348527
-0.4989402050632268,-1.307930178732481,-2.180906651097192
-0.5149609330594076,-1.3017291072666566,-2.180940456174739
-0.5309040848231246,-1.2953305350237043,-2.1809721241780284
-0.5467672090026242,-1.2887354358618897,-2.1810016501515443
-0.5625478665653529,-1.281944814477136,-2.181029029474581
-0.5782436311959503,-1.2749597062447704,-2.1810542578620464
-0.5938520896921655,-1.2677811770558804,-2.1810773313652074
-0.6093708423585789,-1.26041032314832,-2.181098246372377
-0.6247975033980894,-1.2528482709323876,-2.181116999609543
-0.6401297013010522,-1.245096176811225,-2.1811335881409355
-0.6553650792320282,-1.237155226995943,-2.1811480093695415
-0.6705012954140288,-1.2290266373155383,-2.1811602610375544
-0.6855360235102178,-1.220711653021612,-2.1811703412267676
-0.7004669530029609,-1.2122115485879468,-2.181178248358909
-0.7152917895701735,-1.2035276275049644,-2.1811839811959164
-0.7300082554588828,-1.1946612220691115,-2.181187538840151
-0.7446140898559184,-1.185613693167221,-2.181188920734556
-0.7591070492556865,-1.1763864300558697,-2.1811881266627515
-0.7734849078249229,-1.166980850135803,-2.181185156749076
-0.7877454577643809,-1.1573983987214416,-2.1811800114585593
-0.801886509667361,-1.147640548805546,-2.1811726915968466
-0.815905892875032,-1.1377088008190548,-2.181163198310055
-0.8298014558284531,-1.127604682386171,-2.181151533084574
-0.8435710664172499,-1.117329748074725,-2.1811376977468093
-0.857212612324857,-1.1068855791418795,-2.1811216944628615
-0.8707240013702734,-1.096273783275214,-2.181103525738151
-0.8841031618462634,-1.0854959943292501,-2.181083194416981
-0.8973480428539221,-1.07455387205747,-2.1810607036820424
-0.9104566146335702,-1.0634491018398737,-2.1810360570538605
-0.92342686889188,-1.0521833944061454,-2.1810092583901812
-0.9362568191252045,-1.0407584855544647,-2.180980311885302
-0.9489445009390146,-1.0291761358660447,-2.1809492220693394
-0.9614879723634161,-1.0174381304154274,-2.180915993807446
-0.9738853141646554,-1.0055462784766243,-2.1808806322989582
-0.9861346301525857,-0.9935024132251317,-2.1808431430765
-0.998234047484007,-0.9813083914359128,-2.180803532005016
-1.0101817169618463,-0.9689660931773839,-2.1807618052807576
-1.021975813330113,-0.956477421501474,-2.1807179694302024
-1.0336145355645652,-0.9438443021298355,-2.180672031308927
-1.0450961071590614,-0.9310686831362434,-2.180623998100414
-1.0564187764075055,-0.9181525346252788,-2.1805738773148096
-1.0675808166813754,-0.9050978484073312,-2.18052167678762
-1.0785805267027488,-0.8919066376700174,-2.1804674046783536
-1.089416230812808,-0.8785809366460557,-2.180411069469112
-1.1000862792357478,-0.8651228002776876,-2.1803526799631188
-1.1105890483380614,-0.8515343038777,-2.180292245283198
-1.120922940883152,-0.8378175427871203,-2.1802297748701984
-1.1310863862812142,-0.823974632029666,-2.180165278481361
-1.1410778408343643,-0.8100077059629982,-2.180098766188637
-1.1508957879769532,-0.7959189179268769,-2.180030248376945
-1.1605387385110462,-0.7817104398882607,-2.1799597357423877
-1.170005230837001,-0.7673844620834545,-2.179887239290401
-1.1792938311791388,-0.7529431926573475,-2.1798127703338657
-1.1884031338064354,-0.7383888572998453,-2.179736340491156
-1.1973317612482333,-0.7237236988795387,-2.1796579616841414
-1.2060783645049071,-0.708949977074718,-2.1795776461361442
-1.2146416232534698,-0.6940699680017762,-2.1794954063698335
-1.2230202460480837,-0.6790859638410945,-2.17941125520508
-1.2312129705154358,-0.6640002724604885,-2.179325205756759
-1.2392185635449608,-0.6488152170362719,-2.179237271432502
-1.2470358214738733,-0.6335331356720422,-2.1791474659304018
-1.2546635702669913,-0.6181563810152354,-2.1790558032366723
-1.2621006656913123,-0.6026873198715561,-2.178962297623256
-1.2693459934853368,-0.5871283328173321,-2.178866963645391
-1.2763984695230883,-0.5714818138098992,-2.178769816139124
-1.283257039972841,-0.5557501697960653,-2.1786708702187862
-1.289920681450505,-0.5399358203187633,-2.1785701412744185
-1.2963884011676676,-0.524041197121943,-2.178467644969155
-1.3026592370742662,-0.5080687437537907,-2.17836339723656
-1.3087322579958738,-0.4920209151683723,-2.1782574142779256
-1.3146065637655904,-0.475900177325741,-2.178149712559523
-1.320281285350512,-0.45970900679063315,-2.1780403088098135
-1.3257555849727796,-0.44344989032978654,-2.177929220016619
-1.3310286562251856,-0.42712532450800345,-2.1778164634242487
-1.3360997241813297,-0.4107378152829949,-2.17770205653059
-1.3409680455003172,-0.39428987759912704,-2.1775860170841543
-1.3456329085259944,-0.37778403498010654,-2.1774683630810885
-1.3500936333807008,-0.3612228191207245,-2.1773491127621476
-1.3543495720535546,-0.344608769477706,-2.1772282846096274
-1.3584001084832467,-0.32794443285975405,-2.1771058973442603
-1.3622446586353516,-0.31123236301688306,-2.176981969922079
-1.365882670574153,-0.2944751202290864,-2.176856521531242
-1.3693136245289776,-0.27767527089445415,-2.17672957158882
-1.3725370329550446,-0.2608353871167823,-2.176601139737554
-1.3755524405888286,-0.24395804629278783,-2.17647124584258
-1.3783594244979442,-0.22704583069897002,-2.1763399099881147
-1.3809575941255472,-0.21010132707823304,-2.1762071524741153
-1.3461383700467642,-0.18793253732622783,-2.1758245171427206
-1.3482615053728297,-0.17138880915125582,-2.175692638523933
-1.3501805212909013,-0.15482118205046516,-2.175559436673112
-1.3518951627998697,-0.138232185570683,-2.175424932135251
-1.353405206512663,-0.12162435162463502,-2.1752891456486996
-1.3547104606684397,-0.10500021408943029,-2.1751520981417527
-1.355810765139538,-0.08836230840529352,-2.1750138107292054
-1.3567059914331776,-0.07171317117461588,-2.1748743047088848
-1.3573960426879461,-0.055055339761396906,-2.1747336015581573
-1.3578808536650706,-0.038391351891148104,-2.174591722930411
-1.3581603907345001,-0.02172374525132995,-2.1744486906515146
-1.3582346518558082,-0.005055057092391345,-2.17430452671625
-1.3581036665539408,0.01161217617051431,-2.1741592532847296
-1.3577674958898216,0.02827541935507633,-2.1740128926787836
-1.3572262324258424,0.044932138908556046,-2.173865467378334
-1.3564800001862525,0.06157980330363891,-2.1737170000177413
-1.3555289546124725,0.07821588343333769,-2.173567513382137
-1.3543732825133556,0.09483785300488025,-2.173417030403737
-1.3530132020104206,0.11144318893251494,-2.173265574158132
-1.351448962478076,0.12802937172916712,-2.1731131678605644
-1.3496808444788746,0.14459388589688218,-2.172959834862192
-1.347709159693803,0.16113422031598898,-2.172805598646325
-1.3455342508476604,0.17764786863291762,-2.172650482824661
-1.3431564916295302,0.19413232964661506,-2.1724945111334946
-1.3405762866083906,0.2105851076934845,-2.172337707429917
-1.3377940711438865,0.227003713030795,-2.172180095688007
-1.334810311292296,0.24338566221849509,-2.1720216999950006
-1.3316255037077211,0.2597284784993712,-2.1718625445474573
-1.3282401755385378,0.2760296921774889,-2.1717026536474084
-1.3246548843191392,0.2922868409948588,-2.171542051698502
-1.3208702178569993,0.30849747050626675,-2.1713807632021314
-1.3168867941151023,0.32465913445221056,-2.1712188127535583
-1.3127052610897638,0.34076939512988713,-2.1710562250380305
-1.3083262966838871,0.3568258237621673,-2.1708930248268836
-1.303750608575684,0.3728260008645139,-2.170729236973645
-1.2989789340829063,0.3887675166097737,-2.170564886410125
-1.2940120400226198,0.4046479711907991,-2.170399998142508
-1.2888507225665604,0.42046497518084053,-2.1702345972474326
-1.2834958070921172,0.436216149891659,-2.1700687088680746
-1.2779481480289745,0.4518991277293052,-2.1699023582102197
-1.272208628701459,0.4675115525475132,-2.1697355705383377
-1.266278161166633,0.48305107999866076,-2.1695683711716542
-1.2601576860481734,0.4985153778822424,-2.169400785480219
-1.2538481723660806,0.5139021264908107,-2.169232838880975
-1.2473506173622584,0.5292090189533303,-2.1690645568338267
-1.2406660463220105,0.5444337615759093,-2.168895964837708
-1.2337955123914974,0.559574074179848,-2.1687270884266563
-1.2267400963911934,0.5746276904369658,-2.1685579531658776
-1.2195009066253972,0.5895923582021644,-2.168388584647827
-1.2120790786878342,0.6044658398431746,-2.168219008488282
-1.2044757752633963,0.6192459125674513,-2.1680492503224262
-1.1966921859260713,0.6339303687461693,-2.167879335800932
-1.188729526933103,0.6485170162352796,-2.167709290586051
-1.1805890410154292,0.663003678693588,-2.167539140347712
-1.1722719971644495,0.6773881958978082,-2.167368910759619
-1.1637796904151616,0.691668424054562,-2.167198627495363
-1.1551134416257267,0.7058422361092767,-2.167028316224537
-1.146274597253499,0.7199075220519493,-2.166858002608856
-1.1372645291275751,0.7338621892197368,-2.166687712298295
-1.1280846342179156,0.7477041625963413,-2.166517470927224
-1.1187363344010763,0.7614313851081493,-2.166347304110566
-1.1092210762226087,0.7750418179170944,-2.166177237439949
-1.0995403306561775,0.7885334407102104,-2.1660072964798855
-1.0896955928594396,0.8019042519858398,-2.165837506763953
-1.0796883819267404,0.8151522693364679,-2.1656678937909852
-1.069520240638676,0.828275529728149,-2.1654984830212864
-1.0591927352085684,0.8412720897765006,-2.1653292998728455
-1.0487074550259081,0.8541400260192278,-2.1651603697175723
-1.038066012396815,0.866877435185156,-2.164991717877545
-1.0272700422815644,0.8794824344597413,-2.1648233696212738
-1.0496002949002115,0.9211598653433722,-2.2355362550233235
-1.0378140822623232,0.9336080608409484,-2.2346682148838903
-1.025882838637131,0.9459079397650572,-2.2338053121563393
-1.013808455189102,0.958057897384535,-2.2329476655209257
-1.0015928385558768,0.9700563535671576,-2.2320953926493834
-0.9892379105215163,0.981901752868713,-2.23124861019429
-0.9767456076910818,0.9935925646177165,-2.2304074337786908
-0.9641178811665894,1.005127282995846,-2.2295719779859686
-0.9513566962244071,1.0165044271141628,-2.2287423563499624
-0.9384640319941303,1.0277225410852016,-2.2279186813453324
-0.9254418811389851,1.0387801940909929,-2.227101064378158
-0.9122922495378095,1.0496759804471052,-2.2262896157767837
-0.8990171559686482,1.0604085196627706,-2.2254844447828934
-0.8856186317940044,1.0709764564971758,-2.2246856595428177
-0.8720987206477867,1.0813784610119892,-2.2238933670990706
-0.8584594781239865,1.0916132286202034,-2.223107673382109
-0.8447029714671209,1.101679480131359,-2.222328683202316
-0.8308312792644712,1.1115759617932401,-2.221556500242203
-0.8168464911401477,1.1213014453300982,-2.2207912270488235
-0.8027507074510112,1.130854727977491,-2.2200329650264012
-0.7885460389844723,1.140234632513808,-2.2192818144291673
-0.774234606658197,1.1494400072885527,-2.2185378743543995
-0.7598185412217374,1.158469726247459,-2.2178012427356633
-0.7452999829601087,1.1673226889545165,-2.217072016336254
-0.7306810813993323,1.1759978206109702,-2.216350290742827
-0.7159639950139574,1.1844940720713761,-2.2156361603592263
-0.7011508909365801,1.1928104198567795,-2.214929718400494
-0.6862439446693687,1.2009458661650858,-2.2142310568870665
-0.6712453397976099,1.2088994388787022,-2.2135402666391504
-0.6561572677052804,1.2166701915695122,-2.212857437271277
-0.6409819272926571,1.2242572035012564,-2.212182657187026
-0.6257215246959645,1.2316595796293908,-2.2115160135739216
-0.6103782730090704,1.2388764505984866,-2.210857592398496
-0.5949543920072277,1.2459069727372427,-2.2102074784015118
-0.5794521078728627,1.2527503280511743,-2.2095657550933456
-0.5638736529234163,1.2594057242130487,-2.2089325047495305
-0.548221265341222,1.2658723945511299,-2.2083078084064427
-0.5324971889054317,1.272149598035295,-2.207691745857147
-0.5167036727259744,1.2782366192610923,-2.207084395647377
-0.5008429709795436,1.2841327684317976,-2.2064858350716685
-0.48491734264760655,1.289837381338533,-2.20589614016962
-0.4689290512564227,1.2953498193385111,-2.205315385722296
-0.45288036461906306,1.300669469331461,-2.204743645248762
-0.43677355457941747,1.3057957437342964,-2.204180991002743
-0.42061089675817426,1.3107280804540855,-2.2036274939694103
-0.40439467030076004,1.315465942859377,-2.2030832238622913
-0.3881271576272227,1.320008819749939,-2.202548249120295
-0.3718106441840373,1.3243562253249694,-2.202022636904857
-0.35544741819782183,1.3285076991498221,-2.2015064530971906
-0.3390397704309383,1.3324628061213135,-2.2009997622956554
-0.32258999393896076,1.336221136431652,-2.200502627813224
-0.3061003838299891,1.3397823055310438,-2.2000151116750564
-0.2895732370257817,1.3431459540890256,-2.1995372746161737
-0.2730108520246889,1.3463117479545719,-2.1990691760792296
-0.25641552866635814,1.3492793781150192,-2.198610874212373
-0.23978956789818598,1.3520485606538601,-2.198162425867205
-0.22313527154349255,1.3546190367074487,-2.197723886596824
-0.20645494207138543,1.3569905724206557,-2.197295310653955
-0.1897508823682919,1.3591629589015257,-2.1968767509891634
-0.17302539551112403,1.3611360121749665,-2.1964682592491496
-0.15628078454205024,1.3629095731355187,-2.1960698857751195
-0.13951935224484052,1.3644835074992367,-2.1956816796012295
-0.12274340092275675,1.365857705754726,-2.195303688453109
-0.10595523217795075,1.3670320831133635,-2.1949359587464476
-0.08915714669234356,1.3680065794587444,-2.1945785355856517
-0.07235144400994827,1.3687811592953802,-2.194231462762568
-0.055540422320603446,1.3693558116966895,-2.193894782755271
-0.03872637824508443,1.3697305502522996,-2.1935685367269047
-0.021911606621552976,1.3699054130147033,-2.1932527645245927
-0.005098400293315466,1.3698804624452816,-2.1929475046783966
0.011710950102150534,1.3696557853597382,-2.1926527944003347
0.028514156342936563,1.3692314928729536,-2.1923686695834492
0.04530893283124557,1.3686077203432936,-2.192095164800928
0.06209299680077791,1.3677846273163894,-2.1918323133052695
0.07886406852299278,1.3667623974684178,-2.191580147027501
0.09561987151228703,1.3655412385488885,-2.1913386965764365
0.1123581327301282,1.3641213823229748,-2.1911079912379834
0.1290765827881801,1.3625030845133865,-2.1908880589744864
0.1457729561504582,1.3606866247418172,-2.1906789264241144
0.16244499133455803,1.3586723064699686,-2.190480618900284
0.17909043111198913,1.3564604569401735,-2.190293160391126
0.19570702270765844,1.3540514271156237,-2.1901165735589796
0.21229251799854051,1.351445591620218,-2.189950879739929
0.22884467371157272,1.3486433486780365,-2.1897960989433694
0.24536125162081832,1.3456451200524504,-2.189652249851607
0.2618400187439313,1.3424513509848743,-2.18951934981949
0.2782787475379669,1.339062510133167,-2.189397414874072
0.29467521609457425,1.335479089509682,-2.189286459714299
0.3110272083346107,1.3317016044189764,-2.189186497710735
0.327332514202219,1.3277305933951706,-2.1890975409053044
0.3435889298584021,1.3235666181389691,-2.1890196000110707
0.359794257874138,1.3192102634543352,-2.1889526844120355
0.37594630742307034,1.3146621371848155,-2.188896802162966
0.39204289447381657,1.3099228701495191,-2.1888519599892495
0.40808184198192554,1.3049931160787371,-2.18881816328677
0.42406098008153126,1.2998735515492001,-2.1887954161218084
0.43997814627673076,1.2945648759189698,-2.188783721230975
0.4558311856327297,1.2890678112619476,-2.1887830800211523
0.4716179509667901,1.283383102301999,-2.1887934925694763
0.48733630303901626,1.2775115163466793,-2.188814957623333
0.5029841107430165,1.2714538432205413,-2.1888474726003784
0.5185592512964743,1.2652108951980263,-2.188891033588589
0.5340596104316649,1.258783506935909,-2.1889456353463315
0.5494830825859526,1.2521725354052884,-2.1890112713024528
0.5648275710922993,1.245378859823105,-2.189087933556407
0.5800909883698261,1.2384033815831657,-2.1891756128783944
0.5952712561144484,1.2312470241866582,-2.189274298709533
0.6103663054896307,1.223910733172132,-2.189383979162054
0.6253740773172787,1.2163954760449271,-2.1895046410195236
0.6402925222688151,1.2087022422060234,-2.1896362697370932
0.6551196010564546,1.2008320428802919,-2.1897788494417747
0.6698532846247177,1.1927859110441157,-2.1899323629327463
0.6844915543422104,1.1845649013523625,-2.1900967916816874
0.6990324021936948,1.176170090064674,-2.1902721158331455
0.7134738309724805,1.1676025749710486,-2.1904583142049305
0.727813854473165,1.1588634753166838,-2.190655364288544
0.7420504976847456,1.1499539317260532,-2.190863242249642
0.7561817969841297,1.140875106126181,-2.1910819229285337
0.7702058003300679,1.1316281816690845,-2.191311379840712
0.7841205674575319,1.1222143626533505,-2.191551585177425
0.7979241700725617,1.112634874444812,-2.1918025098062865
0.8116146920476003,1.102890963396286,-2.1920641232719236
0.8251902296173386,1.092983896766343,-2.192336393796668
0.8386488915750908,1.0829149626370609,-2.1926192882812905
0.8519887994697154,1.0726854698307382,-2.192912772305783
0.865208087803103,1.0622967478255132,-2.1932168101301808
0.8783049042282434,1.051750146669859,-2.1935313646954393
0.8912774097478912,1.041047036895915,-2.1938563976243604
0.90412377891384,1.0301888094315985,-2.1941918692225664
0.916842200026823,1.0191768755114767,-2.194537738479535
0.9294308753370454,1.008012666586335,-2.194893963069686
0.9418880212453673,0.9966976342314107,-2.1952604993535294
0.9542118685051375,0.9852332500532418,-2.195637302378869
0.9664006624246958,0.9736210055950881,-2.1960243258820764
0.9784526630705432,0.9618624122408762,-2.1964215222894232
0.9903661454711901,0.9499590011176253,-2.196828842718487
1.0021393998216845,0.9379123229963009,-2.19724623697962
1.0137707316888271,0.925723948191055,-2.197673653577498
1.02525846221707,0.9133954664568007,-2.1981110397127357
1.0366009283351019,0.900928486885069,-2.198558341283588
1.0477964829631232,0.8883246377981084,-2.199015502887724
1.0588434952207997,0.8755855666411644,-2.19948246782409
1.0697403506359002,0.8627129398728979,-2.1999591780948524
1.0804854513536062,0.8497084428538871,-2.200445574407431
1.0910772163464928,0.8365737797331638,-2.2009415961766274
1.1015140816251676,0.8233106733327281,-2.2014471815268375
1.111794500449563,0.8099208650299973,-2.201962267294372
1.1219169435408667,0.7964061146381245,-2.202486789029867
1.131879899294082,0.7827682002841492,-2.2030206810008064
1.1416818739911998,0.7690089182849108,-2.2035638761941403
1.1513213920149712,0.7551300830206864,-2.2041163063190212
1.1607969960632598,0.7411335268064871,-2.204677901809646
1.170107247363956,0.72702109976097,-2.205248591828216
1.1792507258904372,0.7127946696729016,-2.2058283042680142
1.1882260305775452,0.6984561218651285,-2.2064169657566066
1.1970317795380614,0.6840073590559939,-2.207014501659162
1.2056666102796558,0.6694503012181504,-2.207620836081908
1.2141291799222806,0.6547868854347131,-2.208235891875712
1.2224181654159805,0.6400190657527018,-2.2088595906398014
1.230532263759091,0.6251488130337128,-2.209491852725618
1.2384701922167909,0.610178114801773,-2.210132597240816
1.246230688539979,0.5951089750883197,-2.2107817420534057
1.253812511184436,0.5799434142742533,-2.2114392037960444
1.2612144395302372,0.5646834689290079,-2.2121048978704776
1.2684352741013778,0.549331191646592,-2.2127787384521405
1.2754738367855698,0.5338886508785406,-2.2134606384949103
1.2823289710541657,0.5183579307637313,-2.2141505097360294
1.2889995421821743,0.5027411309550118,-2.214848262701188
1.2954844374683114,0.4870403664425848,-2.215553806709779
1.301782566455048,0.47125776737410485,-2.2162670498803254
1.3078928611486011,0.45539547887142906,-2.216987899136083
1.3138142762388203,0.4394556608439821,-2.217716260210823
1.319545789318916,0.42344048779867716,-2.2184520376547994
1.3250864011049754,0.40735214864635255,-2.2191951348409025
1.3304351356552104,0.3911928465046675,-2.219945453971002
1.335591040588881,0.3749647984974198,-2.220702896082486
1.3405531873048329,0.3586702355502325,-2.2214673610549935
1.3453206711995913,0.34231140218256745,-2.2222387476173533
