-0.42535553874237153,0.24652887821512584,-2.253950382685988
-0.42230085506847664,0.2517316515708101,-2.2539644379561636
-0.4191823713380977,0.2568964788372711,-2.2539776082953242
-0.41600055974690064,0.26202257544754104,-2.2539898916890038
-0.4127559021931547,0.267109162732393,-2.2540012862583354
-0.40944889020350994,0.27215546804166973,-2.254011790260354
-0.40608002485722394,0.2771607248646635,-2.254021402088269
-0.4026498167088533,0.2821241729495256,-2.2540301202717314
-0.39915878570942,0.2870450584216865,-2.2540379434770603
-0.39560746112606476,0.29192263390126805,-2.254044870507459
-0.39199638146020366,0.2967561586194664,-2.2540509003032096
-0.3883260943642002,0.3015448985338814,-2.2540560319418383
-0.38459715655656523,0.30628812644278275,-2.254060264638266
-0.38081013373570316,0.3109851220982815,-2.254063597744932
-0.3769656004922127,0.31563517231839944,-2.254066030751901
-0.37306414021976364,0.3202375710980058,-2.2540675632869394
-0.3691063450245595,0.32479161971861215,-2.2540681951155794
-0.36509281563340285,0.329296626857002,-2.254067926141156
-0.36102416130038045,0.3337519086926762,-2.25406675640482
-0.3569009997121828,0.33815678901409657,-2.2540646860855333
-0.35272395689207336,0.342510599323713,-2.254061715500041
-0.34849366710252316,0.3468126789417525,-2.254057845102819
-0.3442107727465326,0.3510623751087511,-2.254053075486001
-0.3398759242676483,0.355259043086819,-2.2540474073792853
-0.33548978004870195,0.35940204625961103,-2.254040841649818
-0.3310530063092788,0.3634907562309973,-2.2540333793020517
-0.32656627700194263,0.3675245529224067,-2.2540250214775877
-0.3220302737072268,0.37150282466883444,-2.2540157694549903
-0.31744568552741387,0.37542496831349526,-2.2540056246495865
-0.31281320897912135,0.3792903893011046,-2.2539945886132333
-0.3081335478847129,0.38309850176977417,-2.2539826630340762
-0.3034074132625494,0.3868487286415075,-2.253969849736273
-0.2986355232161026,0.39054050171127885,-2.2539561506797052
-0.2938186028219525,0.39417326173467926,-2.2539415679596653
-0.28895738401667853,0.39774645851412044,-2.2539261038065184
-0.28405260548267686,0.4012595509835754,-2.253909760585347
-0.27910501253291037,0.4047120072918496,-2.2538925407955746
-0.2741153569946224,0.4081033048843605,-2.2538744470705634
-0.2690843970920263,0.41143293058342006,-2.2538554821771957
-0.2640128973279937,0.41470038066700277,-2.2538356490154285
-0.2589016283647634,0.4179051609459864,-2.253814950617833
-0.25375136690369027,0.4210467868398547,-2.253793390149109
-0.24856289556405337,0.42412478345084914,-2.253770970905579
-0.24333700276094392,0.42713868563655855,-2.253747696314663
-0.2380744825822602,0.4300880380809321,-2.2537235699343294
-0.23277613466481978,0.4329723953637101,-2.2536985954525286
-0.2274427640696224,0.43579132202825416,-2.253672776686604
-0.22207518115627284,0.43854439264777356,-2.2536461175826825
-0.2166742014565974,0.4412311918899314,-2.2536186222150443
-0.21124064554746547,0.44385131457982496,-2.253590294785477
-0.2057753389228431,0.4464043657613272,-2.253561139622599
-0.2002791118651007,0.4488899607567827,-2.253531161181177
-0.1947527993155961,0.45130772522504586,-2.25350036404141
-0.18919724074455357,0.45365729521785597,-2.2534687529082045
-0.18361328002026162,0.4559383172345391,-2.2534363326104216
-0.17800176527761621,0.45815044827502666,-2.2534031081001107
-0.1723635487860257,0.46029335589118675,-2.25336908445172
-0.16669948681670174,0.46236671823645875,-2.2533342668612897
-0.16101043950936267,0.4643702241137821,-2.2532986606456262
-0.15529727073836835,0.4663035730218161,-2.253262271241456
-0.1495608479783093,0.46816647519944204,-2.2532251042045623
-0.14380204216907294,0.4699586516685409,-2.2531871652089026
-0.13802172758041303,0.4716798342750426,-2.2531484600457055
-0.13222078167604312,0.4733297657282395,-2.2531089946225555
-0.12640008497727473,0.4749081996383596,-2.2530687749624505
-0.12056052092622582,0.4764149005523959,-2.2530278072028507
-0.11470297574862608,0.4778496439881836,-2.2529860975947043
-0.1088283383162345,0.47921221646672496,-2.252943652501455
-0.10293750000889762,0.4805024155427558,-2.2529004783980353
-0.09703135457627193,0.4817200498335501,-2.252856581869842
-0.09111079799923268,0.4828649390459594,-2.252811969611692
-0.08517672835099026,0.4839369140016851,-2.252766648426764
-0.07923004565793972,0.48493581666077973,-2.252720625225524
-0.07327165176026763,0.48586150014337515,-2.252673907024629
-0.06730245017233888,0.4867138287496366,-2.252626500945822
-0.061323345942884216,0.48749267797793905,-2.252578414214806
-0.055335245515013565,0.4881979345412678,-2.2525296541601048
-0.04933905658608264,0.48882949638183765,-2.2524802282119043
-0.04333568796742832,0.4893872726839339,-2.25243014390088
-0.037326049444000614,0.4898711838849746,-2.252379408857016
-0.0313110516339154,0.4902811616847898,-2.2523280308083957
-0.02529160584794978,0.490617149053124,-2.2522760175799905
-0.01926862394900138,0.4908791002353577,-2.2522233770924247
-0.013243018211536372,0.4910669807564515,-2.2521701173607314
-0.007215701181051283,0.49118076742311334,-2.252116246493093
-0.0011875855335697564,0.49122044832418926,-2.2520617726895646
0.004840416064804387,0.491186022829282,-2.2520067042407903
0.010867391098253569,0.4910775015855967,-2.2519510495266974
0.016892427341505062,0.49089490651301926,-2.251894817015187
0.02291461299996686,0.4906382707974262,-2.2518380152608013
0.028933036849713607,0.4903076388822341,-2.2517806529033875
0.034946788377298706,0.48990306645818704,-2.251722738666742
0.04095495791937164,0.4894246204513894,-2.2516642813572463
0.04695663680207982,0.4888723790095859,-2.251605289862491
0.05295091748023074,0.48824643148669483,-2.2515457731498834
0.05893689367619028,0.48754687842559585,-2.2514857402652497
0.06491366051849687,0.4867738315391833,-2.2514252003314197
0.0708803146801709,0.48592741368968273,-2.2513641625468077
0.0768359545166961,0.48500775886624176,-2.2513026361839734
0.08277968020364668,0.48401501216079923,-2.25124063058818
0.08871059387394613,0.4829493297422375,-2.251178155175938
0.09462779975473165,0.48181087882882623,-2.2511152194335393
0.10053040430380152,0.48059983765896247,-2.2510518329155826
0.10641751634562532,0.47931639546021615,-2.250988005243488
0.1122882472068978,0.477960752416685,-2.250923746104
0.1181417108516131,0.47653311963466966,-2.25085906524769
0.12397702401563682,0.47503371910667425,-2.250793972487437
0.12979330634075678,0.47346278367374184,-2.25072847769691
0.13558968050819284,0.4718205569861326,-2.2506625908090374
0.14136527237154478,0.4701072934623517,-2.25059632181447
0.14711921108915263,0.46832325824653964,-2.250529680760034
0.15285062925585713,0.46646872716422916,-2.250462677747179
0.1585586630341363,0.46454398667648134,-2.2503953229304177
0.16424245228459583,0.46254933383240915,-2.250327626515756
0.16990114069579615,0.46048507622009954,-2.2502595987591203
0.17553387591339764,0.4583515319159415,-2.250191249964777
0.18113980966860269,0.4561490294323728,-2.250122590483741
0.1867180979058741,0.45387790766405484,-2.2500536307121894
0.19226790090991133,0.45153851583248666,-2.2499843810898534
0.19778838343186908,0.4491312134290696,-2.2499148520984202
0.2032787148147953,0.44665637015663107,-2.249845054259919
0.20873806911826923,0.44411436586942415,-2.2497749981351083
0.21416562524222524,0.44150559051160837,-2.249704694321854
0.21956056704994253,0.4388304440542289,-2.249634153453506
0.22492208349017992,0.4360893364307025,-2.2495633861972673
0.2302493687184403,0.43328268747082593,-2.249492403252567
0.2355416222173476,0.4304109268333148,-2.2494212153494155
0.24079804891611906,0.42747449393689035,-2.2493498332467716
0.24601785930911188,0.42447383788992366,-2.249278267730897
0.2512002695734283,0.4214094174186537,-2.2492065296137085
0.2563445016855699,0.4182817007939868,-2.249134629731133
0.26144978353711185,0.41509116575689786,-2.2490625789414533
0.2665153490493877,0.41183829944244327,-2.2489903881236555
0.2715404382871704,0.4085235983023995,-2.248918068175776
0.2765242975713289,0.40514756802654095,-2.248845630013241
0.2814661795904462,0.40171072346257436,-2.2487730845672127
0.2863653435113818,0.39821358853474087,-2.2487004427829254
0.29122105508876756,0.39465669616110155,-2.24862771561803
0.2960325867734175,0.39104058816952036,-2.2485549140409287
0.2831142256873725,0.36459128327043827,-2.248459731177181
0.2875582261760048,0.3610785616020313,-2.248391101327405
0.29195864584944975,0.3575116720088199,-2.2483224321944455
0.2963148258189122,0.35389115677163147,-2.248253734126256
0.3006261139822226,0.3502175661520467,-2.2481850174732534
0.3048918651196587,0.3464914583065187,-2.248116292586756
0.30911144098865884,0.34271339919936405,-2.248047569817427
0.313284210417412,0.3388839625146388,-2.247978859513709
0.3174095493973141,0.3350037295669156,-2.247910172020272
0.3214868411742769,0.33107328921097623,-2.2478415176764552
0.32551547633887773,0.3270932377504357,-2.247772906814714
0.3294948529153385,0.32306417884531213,-2.2477043497590663
0.333424376449321,0.31898672341855944,-2.2476358568235457
0.33730346009452944,0.3148614895615762,-2.2475674383106523
0.3411315246981069,0.31068910243870934,-2.2474991045098127
0.34490799888481427,0.3064701941907649,-2.247430865695833
0.34863231913998344,0.30220540383754574,-2.247362732127369
0.35230392989123155,0.29789537717942893,-2.2472947140453847
0.35592228358892697,0.29354076669799983,-2.24722682167163
0.35948684078539694,0.289142231455761,-2.2471590652071067
0.36299707021286676,0.284700436994929,-2.2470914548305525
0.36645244886012074,0.28021605523533766,-2.247024000696921
0.36985246204787453,0.2756897643714651,-2.246956712935868
0.37319660350285233,0.2711222487685969,-2.2468896016502473
0.37648437543055585,0.26651419885814737,-2.2468226769146034
0.3797152885867197,0.261866311032152,-2.2467559487736755
0.3828888623474428,0.2571792875369492,-2.246689427240907
0.3860046247779869,0.2524538363660677,-2.2466231222969575
0.38906211270023655,0.24769067115233742,-2.246557043888223
0.39206087175880916,0.24289051105923934,-2.2464912019253607
0.39500045648581017,0.23805408067151274,-2.246425606281822
0.3978804303642239,0.23318210988503635,-2.2463602667923914
0.4007003658899347,0.2282753337960003,-2.246295193251732
0.4034598446323683,0.22333449258938723,-2.2462303954129355
0.40615845729375044,0.21836033142677744,-2.2461658829860855
0.4087958037669727,0.2133536003334985,-2.2461016656368216
0.41137149319206007,0.20831505408513395,-2.2460377529849143
0.4138851440112359,0.20324545209341033,-2.2459741546028495
0.41633638402257456,0.19814555829147862,-2.245910880014414
0.4187248504322406,0.1930161410186088,-2.2458479386932995
0.4210501899053036,0.18785797290431372,-2.2457853400617047
0.42331205861512833,0.1826718307519209,-2.245723093488953
0.42551012229133167,0.1774584954216091,-2.2456612082901155
0.4276440562663032,0.17221875171292778,-2.2455996937246443
0.4297135455202826,0.16695338824681677,-2.2455385589950136
0.4317182847249933,0.16166319734714307,-2.245477813245372
0.4336579782858235,0.156348974921774,-2.245417465560202
0.4355323403825526,0.15101152034320287,-2.245357524962991
0.4373410950086211,0.14565163632874586,-2.245298000414911
0.43908397600893634,0.14027012882032688,-2.2452389008135087
0.4407607271162133,0.13486780686386843,-2.245180234991406
0.4423711019858467,0.1294454824883071,-2.245122011715011
0.4439148642293117,0.12400397058424929,-2.2450642396832365
0.44539178744608887,0.11854408878228698,-2.245006927526236
0.44680165525411203,0.11306665733099053,-2.2449500838041407
0.4481442613187377,0.10757249897459438,-2.2448937170058194
0.4494194093802308,0.10206243883039684,-2.2448378355476373
0.4506269132797676,0.09653730426588857,-2.244782447772235
0.4517665969839526,0.09099792477562892,-2.2447275619473173
0.4528382946078479,0.08544513185788727,-2.244673186264448
0.4538418504365139,0.07987975889106705,-2.2446193288378637
0.45477711894506034,0.07430264100993027,-2.244565997703298
0.45564396481720654,0.06871461498163979,-2.2445132008168116
0.4564422629623485,0.06311651908163718,-2.2444609460536458
0.4571718985311362,0.05750919296937336,-2.2444092412070757
0.4578327669295553,0.05189347756391082,-2.2443580939872874
0.4584247738315177,0.04627021491941178,-2.244307512020258
0.45894783518995935,0.04064024810053399,-2.244257502846658
0.4594018772464433,0.035004421057748314,-2.244208073920758
0.4597868365392723,0.029363578502596896,-2.244159232609354
0.46010265991010874,0.023718565782909044,-2.2441109861907047
0.46034930450910255,0.018070228757991965,-2.2440633418534794
0.46052673779853065,0.012419413673814009,-2.244016306695724
0.4606349375549455,0.006766967038197301,-2.243969887723837
0.4606738918698373,0.0011137354960371988,-2.2439240918515604
0.46064359914880837,-0.0045394342954345615,-2.243878925898986
0.4605440681092641,-0.010191695791324635,-2.243834396591571
0.4603753177766209,-0.015842202683676778,-2.2437905105591747
0.46013737747903216,-0.02149010902597336,-2.2437472743351043
0.45983028684063737,-0.02713456935752577,-2.243704694355175
0.45945409577333407,-0.0327747388277356,-2.2436627769567874
0.45900886446707595,-0.03840977332020983,-2.2436215283780174
0.45849466337870076,-0.04403882957671328,-2.2435809547567227
0.4579115732192902,-0.04966106532094165,-2.243541062129661
0.4572596849400639,-0.055275639382098084,-2.2435018564316245
0.45653909971681417,-0.06088171181825735,-2.2434633434945934
0.45574992893287924,-0.0664784440394992,-2.2434255290468954
0.45489229416066546,-0.07206499893079807,-2.243388418712392
0.453966327141716,-0.07764054097464794,-2.243352018009668
0.45297216976533466,-0.08320423637340951,-2.2433163323512475
0.4519099740457658,-0.08875525317136192,-2.2432813670428158
0.45077990209793645,-0.09429276137644271,-2.243247127282465
0.4495821261117641,-0.09981593308166035,-2.2432136181599485
0.44831682832503605,-0.10532394258616276,-2.2431808446559574
0.4469842009948624,-0.11081596651594534,-2.2431488116414067
0.44558444636771233,-0.11629118394418425,-2.243117523876744
0.44411777664803237,-0.12174877651117637,-2.2430869860112663
0.4425844139654581,-0.12718792854387245,-2.24305720258246
0.4409845903406212,-0.13260782717498612,-2.2430281780153543
0.4393185476495576,-0.13800766246166402,-2.2429999166218897
0.4375865375867243,-0.1433866275037005,-2.2429724226003036
0.43578882162662835,-0.1487439185612825,-2.2429457000345363
0.43392567098407614,-0.15407873517224777,-2.242919752893643
0.4319973665730478,-0.15939028026884206,-2.2428945850312356
0.43000419896420405,-0.1646777602939597,-2.2428702001849317
0.42794646834103056,-0.16994038531685127,-2.2428466019758226
0.4258244844546285,-0.1751773691482859,-2.24282379390796
0.4236385665771566,-0.18038792945514973,-2.242801779367857
0.4213890434539313,-0.18557128787446753,-2.242780561624007
0.4190762532541943,-0.19072667012683286,-2.242760143826421
0.4167005435205522,-0.19585330612923033,-2.2427405290061784
0.41426227111709707,-0.20095043010723698,-2.242721720074997
0.41176180217621444,-0.2060172807065864,-2.24270371982482
0.4091995120440889,-0.2110531011040829,-2.24268653092742
0.4065757852249114,-0.21605713911784952,-2.2426701559340207
0.40389101532379845,-0.22102864731689614,-2.242654597274933
0.40114560498843177,-0.22596688312999444,-2.242639857259211
0.3983399658494258,-0.2308711089538427,-2.242625938074325
0.3954745184594299,-0.23574059226051153,-2.2426128417858533
0.39254969223097735,-0.240574605704148,-2.242600570337184
0.3895659253730866,-0.2453724272269354,-2.2425891255492467
0.3865236648266253,-0.250133340164283,-2.2425785091202477
0.3834233661984445,-0.25485663334924263,-2.242568722625434
0.3802654936942945,-0.25954160121613035,-2.2425597675168683
0.37705052005052886,-0.264187543903345,-2.2425516451232235
0.37377892646460775,-0.268793767355367,-2.242544356649594
0.3704512025244098,-0.2733595834239253,-2.242537903177326
0.3670678461363595,-0.277884309968321,-2.242532285663864
0.3636293634523865,-0.28236727095488867,-2.2425275049426148
0.3601362687957166,-0.28680779655559185,-2.2425235617228303
0.3565890845855156,-0.2912052232457281,-2.2425204565895074
0.3529883412603851,-0.2955588939007427,-2.242518190003302
0.3493345772007314,-0.2998681578921276,-2.2425167623004683
0.34562833865000786,-0.304132371182402,-2.242516173692808
0.3418701796348479,-0.30835089641915453,-2.242516424267642
0.33806066188409695,-0.31252310302814057,-2.242517513987798
0.33420035474675375,-0.3166483673054183,-2.2425194426916133
0.3302898351088326,-0.3207260725085127,-2.2425222100929605
0.3263296873091561,-0.32475560894659794,-2.242525815781289
0.32232050305409354,-0.3287363740696795,-2.2425302592216774
0.31826288133124864,-0.3326677725567737,-2.242535539754917
0.3141574283221177,-0.33654921640306207,-2.2425416565975977
0.3100047573137199,-0.3403801250060195,-2.2425486088422253
0.305805488609219,-0.3441599252504959,-2.242556395457345
0.3015602494375436,-0.3478880515927457,-2.2425650152876906
0.29726967386201936,-0.3515639461433918,-2.2425744670543475
0.2929344026880254,-0.355187058749311,-2.242584749354932
0.28855508336968566,-0.3587568470744346,-2.242595860663793
0.2841323699156097,-0.3622727766794468,-2.242607799332224
0.279666922793691,-0.36573432110037835,-2.2426205635887033
0.27515940883498097,-0.36914096192607393,-2.2426341515391366
0.2706105011366455,-0.37249218887453495,-2.2426485611671327
0.2660208789640214,-0.3757874998681159,-2.242663790334285
0.26139122765178063,-0.37902640110757274,-2.2426798367804763
0.2567222385042202,-0.3822084071449473,-2.2426966981241994
0.25201460869468684,-0.38533304095528104,-2.2427143718628937
0.2472690411641514,-0.3883998340071463,-2.242732855373302
0.2424862445189455,-0.3914083263319856,-2.2427521459118402
0.23766693292767335,-0.39435806659225076,-2.2427722406149893
0.23281182601731443,-0.3972486121483291,-2.2427931364996994
0.22792164876852491,-0.4000795291242514,-2.2428148304638142
0.22299713141016062,-0.4028503924721678,-2.2428373192865134
0.21803900931302325,-0.4055607860355872,-2.2428605996287656
0.21304802288285685,-0.40821030261136587,-2.242884668033807
0.20802491745259616,-0.41079854401044197,-2.2429095209276313
0.20297044317388976,-0.4133251211173024,-2.242935154619496
0.1978853549079073,-0.4157896539481755,-2.2429615653024495
0.1927704121154472,-0.41819177170794203,-2.242988749053871
0.187626378746358,-0.42053111284575345,-2.2430167018360287
0.18245402312828812,-0.4228073251093521,-2.243045419496656
0.17725411785477937,-0.4250200655980822,-2.2430748977695405
0.1720274396727156,-0.42716900081458736,-2.2431051322751316
0.166774769369148,-0.42925380671518254,-2.2431361185211665
0.16149689165750158,-0.43127416875889707,-2.243167851903307
0.1561945950631896,-0.43322978195517753,-2.2432003277057997
0.15086867180863994,-0.4351203509102459,-2.2432335411021445
0.14551991769775605,-0.436945589872104,-2.2432674871557845
0.14014913199982443,-0.43870522277417806,-2.243302160820813
0.1347571173328841,-0.44039898327759597,-2.2433375569426897
0.12934467954657408,-0.44202661481209093,-2.2433736702589786
0.12391262760447369,-0.4435878706155246,-2.2434104954001004
0.11846177346595248,-0.4450825137720227,-2.243448026890099
0.11299293196754141,-0.4465103172487188,-2.2434862591474243
0.10750692070384885,-0.447871063931097,-2.2435251864857313
0.10200455990802709,-0.4491645466569305,-2.243564803114694
0.09648667233181393,-0.45039056824880824,-2.2436051031408324
0.0909540831251601,-0.45154894154524555,-2.2436460805683587
0.08540761971546061,-0.45263948943037047,-2.2436877293000355
0.07984811168640575,-0.45366204486218537,-2.2437300431380494
0.0742763906564676,-0.4546164508993922,-2.2437730157849005
0.06869329015703868,-0.4555025607267829,-2.2438166408443063
0.06309964551023878,-0.4563202376791846,-2.2438609118221193
0.057496293706407624,-0.457069355263959,-2.24390582212726
0.05188407328129561,-0.45774979718204856,-2.243951365072663
0.04626382419297736,-0.4583614573475672,-2.2439975338762386
0.040636387698494626,-0.4589042399059306,-2.2440443216618515
0.03500260623025345,-0.45937805925052055,-2.244091721460305
0.029363323272188064,-0.459782840037883,-2.2441397262103484
0.02371938323570961,-0.46011851720145264,-2.2441883287596935
0.018071631335456455,-0.46038503596380254,-2.2442375218660437
0.01242091346486304,-0.4605823518474156,-2.244287298198141
0.006768076071564291,-0.4607104306839727,-2.244337650336821
0.0011139660326524472,-0.4607692486221579,-2.2443885707760867
-0.00454056947019509,-0.46075879213397514,-2.244440051924192
-0.01019468307570421,-0.4606790580195745,-2.2444920861047386
-0.015847527368083182,-0.4605300534105866,-2.2445446655577843
-0.02149825500218536,-0.4603117957719631,-2.244597782440971
-0.027146018828729628,-0.4600243129023185,-2.2446514288306534
-0.032789972019565836,-0.45966764293277595,-2.244705596723054
-0.03842926819296615,-0.45924183432431054,-2.244760278035416
-0.04406306153892522,-0.45874694586359344,-2.244815464607182
-0.04969050694445139,-0.4581830466573317,-2.2448711482011743
-0.055310760118831466,-0.45755021612510494,-2.2449273205047935
-0.06092297771885163,-0.4568485439906968,-2.2449839731312236
-0.06652631747395538,-0.45607813027192273,-2.2450410976206556
-0.07211993831132502,-0.4552390852689492,-2.2450986854415125
-0.07770300048086103,-0.4543315295511108,-2.2451567279916973
-0.08327466568005137,-0.4533555939422176,-2.2452152165998434
-0.08883409717870458,-0.4523114195043587,-2.245274142526576
-0.0943804599435334,-0.45119915752020007,-2.245333496965792
-0.09991292076256966,-0.45001896947377723,-2.2453932710459417
-0.10543064836939241,-0.4487710270297833,-2.245453455831324
-0.1109328135671518,-0.4474555120113546,-2.245514042323397
-0.11641858935237044,-0.4460726163763538,-2.2455750214620864
-0.12188715103850448,-0.4446225421921527,-2.2456363841271187
-0.1273376763792454,-0.4431055016089151,-2.2456981211393527
-0.13276934569154733,-0.4415217168313839,-2.245760223262125
-0.13818134197835816,-0.4398714200891713,-2.245822681202604
-0.14357285105103876,-0.43815485360555795,-2.2458854856131563
-0.14894306165145194,-0.4363722695647992,-2.245948627092715
-0.1542911655737026,-0.4345239300779456,-2.246012096188164
-0.15961635778551153,-0.43261010714717724,-2.246075883395728
-0.1649178365492043,-0.43063108262865624,-2.246139979162368
-0.17019480354229788,-0.42858714819390087,-2.24620437388719
-0.17544646397766614,-0.42647860528968506,-2.2462690579228615
-0.18067202672326696,-0.4243057650964653,-2.246334021577029
-0.18587070442141176,-0.42206894848534127,-2.246399255113752
-0.1910417136075621,-0.41976848597355326,-2.2464647487549403
-0.1961842748286314,-0.4174047176785199,-2.2465304926817953
-0.2012976127607773,-0.4149779932704228,-2.246596477036267
-0.2063809563266646,-0.41248867192334127,-2.246662691922508
-0.21143353881218213,-0.4099371222649432,-2.2467291274083414
-0.21645459798259475,-0.4073237223247369,-2.246795773526733
-0.22144337619811313,-0.40464885948088947,-2.246862620277266
-0.2263991205288631,-0.4019129304056176,-2.246929657627629
-0.23132108286923703,-0.3991163410091568,-2.246996875515103
-0.23620852005160983,-0.3962595063823154,-2.247064263848057
-0.2410606939594001,-0.3933428507376191,-2.247131812507452
-0.24587687163946215,-0.39036680734905344,-2.2471995113483416
-0.25065632541378713,-0.38733181849041054,-2.247267350201387
-0.25539833299049913,-0.38423833537224844,-2.247335318874372
-0.2601021775741261,-0.3810868180774677,-2.2474034071537203
-0.26476714797513046,-0.37787773549551634,-2.247471604806025
-0.2693925387186802,-0.37461156525522815,-2.247539901579572
-0.27397765015264364,-0.3712887936563035,-2.247608287205876
-0.27852178855479126,-0.3679099155994411,-2.2476767514012144
-0.2830242662391862,-0.3644754345151281,-2.247745283868168
-0.287484401661747,-0.36098586229109997,-2.247813874297164
-0.2919015195249658,-0.35744171919847395,-2.247882512368019
-0.29627495088176414,-0.35384353381657185,-2.2479511877514895
-0.30060403323846996,-0.3501918429564354,-2.248019890110824
-0.3048881106568988,-0.3464871915830484,-2.248088609103312
-0.30912653385552324,-0.34273013273627306,-2.248157334381843
-0.3133186603097121,-0.3389212274505108,-2.2482260555964615
-0.3174638543510253,-0.3350610446730988,-2.2482947623959255
-0.3215614872655453,-0.3311501611814517,-2.248363444429266
-0.32561093739123154,-0.3271891614989609,-2.2484320913473512
-0.3296115902142783,-0.32317863780965994,-2.2485006928044418
-0.3335628384644643,-0.3191191898716691,-2.248569238459761
-0.33746408220947294,-0.31501142492943013,-2.248637717979051
-0.3413147289481712,-0.310855957624743,-2.24870612103614
-0.3451141937028296,-0.30665340990661555,-2.2487744373145038
-0.3488618991102676,-0.30240441093993925,-2.2488426565088266
-0.35255727551191035,-0.298109597013003,-2.2489107683265663
-0.356199761042738,-0.2937696114438579,-2.2489787624895126
-0.3597888017191182,-0.2893851044855438,-2.24904662873535
-0.3633238515254979,-0.2849567332301942,-2.2491143568192133
-0.3668043724999502,-0.2804851615120288,-2.249181936515249
-0.3702298348185502,-0.27597105980925085,-2.2492493576181674
-0.3735997168785756,-0.27141510514485806,-2.2493166099447963
-0.37691350538050794,-0.266817980986388,-2.249383683335635
-0.38017069540882875,-0.26218037714460285,-2.2494505676564014
-0.3833707905115886,-0.2575029896711378,-2.2495172527995764
-0.386513302778741,-0.2527865207551195,-2.2495837286859492
-0.3895977529192245,-0.24803167861877112,-2.249649985266157
-0.39262367033677736,-0.24323917741202508,-2.24971601252222
-0.39559059320447665,-0.23840973710614685,-2.2497818004690737
-0.3984980685379817,-0.23354408338639848,-2.249847339156101
-0.4013456522674746,-0.2286429475437437,-2.24991261866865
-0.4041329093082797,-0.22370706636562415,-2.249977629129562
-0.4068594136301542,-0.2187371820258089,-2.250042360700679
-0.40952474832523106,-0.21373404197334647,-2.250106803584359
-0.41212850567460924,-0.2086983988206228,-2.250170948024981
-0.4146702872135699,-0.2036310102305539,-2.250234784310439
-0.4171497037954162,-0.1985326388029203,-2.2502983027736434
-0.41956637565391725,-0.19340405195986324,-2.2503614937940055
-0.4219199324643461,-0.18824602183056435,-2.2504243477989174
-0.424210013403105,-0.18305932513511589,-2.25048685526523
-0.42643626720591865,-0.17784474306761103,-2.250549006720723
-0.4285983522245925,-0.17260306117845897,-2.2506107927455616
-0.43069593648231785,-0.16733506925595595,-2.250672203973758
-0.43272869772751954,-0.1620415612071162,-2.250733231094612
-0.43469632348622983,-0.15672333493779475,-2.2507938648541557
-0.4365985111129849,-0.15138119223210697,-2.2508540960565835
-0.4384349678402261,-0.14601593863117554,-2.2509139155656746
-0.4402054108262035,-0.14062838331121377,-2.2509733143062105
-0.44190956720136837,-0.1352193389609676,-2.251032283265381
-0.44354717411324507,-0.12978962165853936,-2.251090813494181
-0.4451179787697751,-0.12434005074760233,-2.2511488961088024
-0.44662173848112297,-0.1188714487130372,-2.2512065222920103
-0.4480582206999375,-0.11338464105599785,-2.2512636832945163
-0.44942720306005624,-0.10788045616843743,-2.251320370436337
-0.4507284734136497,-0.10235972520710267,-2.2513765751081425
-0.4519618298667941,-0.0968232819670284,-2.251432288772604
-0.4531270808134665,-0.09127196275453904,-2.2514875029657144
-0.4542240449679542,-0.08570660625979021,-2.251542209298113
-0.4552525513956735,-0.08012805342885969,-2.2515963994563934
-0.4562124395423874,-0.07453714733541265,-2.2516500652043994
-0.4571035592618191,-0.06893473305196507,-2.2517031983845097
-0.4579257708416537,-0.06332165752075576,-2.2517557909189154
-0.4586789450279205,-0.05769876942426039,-2.25180783481088
-0.4593629630477548,-0.05206691905535483,-2.251859322145991
-0.45997771663052744,-0.04642695818716166,-2.251910245093397
-0.46052310802734214,-0.040779739942587885,-2.2519605959070352
-0.4609990500288942,-0.03512611866358769,-2.2520103669268443
-0.4614054659816835,-0.02946694978015809,-2.2520595505799625
-0.4617422898025822,-0.02380308967910166,-2.252108139381919
-0.4620094659917479,-0.018135395572566878,-2.252156125937805
-0.4622069496438832,-0.01246472536639186,-2.2522035029434346
-0.46233470645783437,-0.006791937528276673,-2.2522502631864927
-0.46239271274452876,-0.0011178909557955866,-2.252296399547668
-0.4623809554332462,0.0045565551557166075,-2.252341905001771
-0.46229943207622254,0.010230541445395728,-2.25238677261884
-0.4621481508515836,0.01590320851916206,-2.25243099556523
-0.4619271305646059,0.021573697082108354,-2.25247456710469
-0.46163640064730405,0.02724114807092715,-2.2525174805994226
-0.4612760011563424,0.032904702786368756,-2.252559729511128
-0.4608459827692705,0.03856350302569536,-2.2526013074020383
-0.4603464067790814,0.044216691215119716,-2.2526422079359314
-0.4597773450870904,0.0498634105422023,-2.252682424879127
-0.45913888019413834,0.05550280508818117,-2.2527219521014756
-0.45843110519011443,0.061134019960222524,-2.2527607835773225
-0.45765412374180287,0.06675620142355762,-2.2527989133864614
-0.45680805007905173,0.07236849703349706,-2.25283633571507
-0.4558930089792661,0.07797005576728758,-2.252873044856625
-0.45490913575022685,0.08356002815580023,-2.252909035212813
-0.45385657621123476,0.08913756641502248,-2.252944301294405
-0.45273548667258573,0.09470182457733219,-2.2529788377221345
-0.4515460339133749,0.10025195862253221,-2.2530126392275447
-0.45028839515763536,0.10578712660862569,-2.253045700653822
-0.44896275804881247,0.11130648880230902,-2.253078016956616
-0.447569320622578,0.11680920780915575,-2.2531095832048353
-0.4461082912779874,0.12229444870348025,-2.253140394581434
-0.4445798887469823,0.12776137915784577,-2.2531704463841695
-0.4429843420622451,0.13320916957220946,-2.2531997340263534
-0.44132189052340753,0.13863699320266853,-2.253228253037576
-0.4395927836616195,0.1440440262897971,-2.253255999064418
-0.43779728120248146,0.14942944818654708,-2.2532829678711406
-0.4359356530273475,0.15479244148569038,-2.253309155340359
-0.43400817913300344,0.16013219214678245,-2.2533345574736945
-0.4320151495897263,0.16544788962262755,-2.2533591703924123
-0.42995686449773013,0.1707387269852228,-2.2533829903380367
-0.4278336339420076,0.17600390105115526,-2.2534060136729477
-0.42564577794557,0.1812426125064413,-2.2534282368809624
-0.4233936264210971,0.18645406603077425,-2.25344965656789
-0.4210775191210002,0.19163747042117174,-2.253470269462077
-0.4186978055859086,0.19679203871499024,-2.2534900724149227
-0.4162548450915876,0.20191698831229535,-2.253509062401383
-0.4137490065942933,0.20701154109756217,-2.2535272365204517
-0.4111806686745772,0.2120749235606854,-2.253544591995623
-0.4085502194795455,0.21710636691727836,-2.253561126175331
-0.4058580566635849,0.22210510722824336,-2.253576836533376
-0.40310458732756227,0.2270703855185916,-2.2535917206693243
-0.4002902279565095,0.23200144789548738,-2.253605776308891
-0.3974154043558024,0.23689754566550789,-2.2536190013043016
-0.39448055158584633,0.24175793545108462,-2.253631393634638
-0.3914861138952732,0.24658187930612058,-2.2536429514061562
-0.3884325446526693,0.2513686448307511,-2.2536536728525896
-0.38532030627683783,0.25611750528523813,-2.253663556335432
-0.3821498701656099,0.2608277397029747,-2.253672600344199
-0.3789217166232173,0.2654986330025793,-2.2536808034966658
-0.3756363347862373,0.27012947609906274,-2.253688164539091
-0.37229422254812145,0.27471956601404945,-2.2536946823464143
-0.3688958864823209,0.27926820598503443,-2.2537003559224384
-0.3654418417640237,0.28377470557365236,-2.253705184399985
-0.36193261209051136,0.2882383807729501,-2.2537091670410354
-0.358368729600155,0.29265855411363334,-2.2537123032368473
-0.3547507347900579,0.29703455476928015,-2.253714592508052
-0.35107917643236375,0.3013657186604941,-2.253716034504732
-0.3473546114892406,0.305651388557986,-2.253716629006474
-0.3435776050265557,0.3098909141845652,-2.253716375922407
-0.33974873012625845,0.31408365231602076,-2.2537152752912157
-0.335868567797483,0.3182289668808773,-2.253713327281134
-0.3319377068863861,0.32232622905901076,-2.2537105321899196
-0.32795674398473507,0.32637481737910456,-2.253706890444803
-0.32392628333726564,0.33037411781492915,-2.253702402602425
-0.3198469367478165,0.3343235238804338,-2.2536970693487413
-0.3157193234842671,0.3382224367236271,-2.253690891498918
-0.31154407018228475,0.3420702652192395,-2.2536838699971997
-0.3073218107479056,0.3458664260601428,-2.2536760059167595
-0.303053186258961,0.3496103438475196,-2.253667300459526
-0.2987388448653661,0.35330145117976375,-2.2536577549559946
-0.2943794416882913,0.35693918874009634,-2.253647370865013
-0.2899756387182307,0.36052300538288407,-2.2536361497735475
-0.2855281047119855,0.36405235821864734,-2.2536240933964344
-0.28103751508857766,0.36752671269774145,-2.2536112035761025
-0.27650455182411954,0.370945542692696,-2.253597482282279
-0.2719299033456447,0.3743083305792052,-2.25358293161168
-0.2673142644239318,0.37761456731574705,-2.253567553787671
-0.26265833606532724,0.38086375252182697,-2.2535513511599166
-0.2579628254025958,0.3840553945548257,-2.2535343262040035
-0.25322844558481006,0.38718901058544447,-2.2535164815210473
-0.2484559156663002,0.3902641266717332,-2.2534978198372775
-0.24364596049468526,0.39328027783168923,-2.2534783440036055
-0.23879931059800183,0.3962370081144139,-2.253458056995166
-0.23391670207095117,0.3991338706698204,-2.2534369619108494
-0.22899887646028094,0.40197042781687636,-2.2534150619728024
-0.22404658064932897,0.40474625111037144,-2.25339236052592
-0.21906056674173766,0.40746092140620377,-2.253368861037311
-0.21404159194437025,0.41011402892516763,-2.253344567095747
-0.208990418449438,0.4127051733152396,-2.2533194824110914
-0.20390781331586938,0.4152339637123477,-2.2532936108137105
-0.19879454834993154,0.41770001879961755,-2.2532669562538636
-0.1936513999851299,0.4201029668650859,-2.2532395228010746
-0.1884791491614064,0.42244244585787216,-2.253211314643489
-0.18327858120365528,0.42471810344279637,-2.253182336087203
-0.17805048569957693,0.4269295970534436,-2.253152591555586
-0.17279565637688984,0.4290765939436572,-2.253122085588574
-0.16751489097992675,0.43115877123745927,-2.2530908228419495
-0.1622089911456287,0.4331758159773893,-2.2530588080866067
-0.15687876227896091,0.4351274251712533,-2.2530260462077893
-0.15152501342777486,0.437013305837278,-2.2529925422043213
-0.14614855715713346,0.43883317504766134,-2.2529583011878116
-0.1407502094231217,0.4405867599705159,-2.2529233283818435
-0.13533078944616372,0.4422737979101979,-2.25288762912115
-0.12989111958387026,0.44389403634601515,-2.252851208850769
-0.12443202520343585,0.44544723296931016,-2.2528140731251773
-0.11895433455360646,0.4469331557189146,-2.2527762276074186
-0.1134588786362391,0.44835158281496623,-2.252737678068202
-0.10794649107748006,0.4497023027910882,-2.252698430384992
-0.10241800799857577,0.4509851145249247,-2.2526584905410822
-0.09687426788634203,0.45219982726702956,-2.252617864624644
-0.0913161114633142,0.4533462606681033,-2.252576558827771
-0.08574438155759935,0.4544242448045773,-2.2525345794455
-0.0801599229724493,0.4554336202025409,-2.252491932874815
-0.07456358235557896,0.4563742378600094,-2.2524486256136447
-0.06895620806825273,0.45724595926753014,-2.2524046642598297
-0.06333865005415953,0.4580486564271253,-2.2523600555100907
-0.05771175970809632,0.45878221186956925,-2.2523148061589686
-0.05207638974448314,0.45944651867000025,-2.252268923097758
-0.046433394065735926,0.46004148046186316,-2.2522224133134214
-0.04078362763051089,0.46056701144918466,-2.2521752838874893
-0.03512794632184681,0.4610230364171795,-2.2521275419949496
-0.02946720681522797,0.4614094907411873,-2.252079194903118
-0.023802266446587794,0.4617263203939412,-2.2520302499704967
-0.018133983080273405,0.46197348195116683,-2.251980714645621
-0.012463214976994152,0.46215094259551504,-2.251930596465889
-0.0067908206617775385,0.4622586801188268,-2.251879903056381
-0.001117658791952384,0.46229668292273246,-2.251828642128661
0.0045554119748208366,0.4622649500175884,-2.2517768214795737
0.010227533112449833,0.4621634910197502,-2.25172444899002
0.01589784635821495,0.4619923261471874,-2.251671532623725
0.02156549384446428,0.46175148621343926,-2.251618080425991
0.027229618230174012,0.4614410126199182,-2.2515641005224416
0.032889362832351596,0.4610609573465597,-2.2515096011177524
0.03854387175726214,0.4606113829408246,-2.251454590494368
0.04419229003145869,0.46009236250505725,-2.2513990770112104
0.04983376373259361,0.4595039796822021,-2.251343069102375
0.0554674401199886,0.45884632863988395,-2.2512865752758153
0.06109246776494418,0.45811951405285717,-2.251229604112019
0.06670799668076935,0.45732365108382494,-2.2511721642626696
0.07231317845250987,0.45645886536263863,-2.251114264449303
0.07790716636634995,0.45552529296387795,-2.251055913461948
0.08348911553867513,0.4545230803828207,-2.2509971201577605
0.08905818304477078,0.45345238450980585,-2.2509378934596507
0.09461352804713596,0.45231337260299637,-2.250878242354894
0.10015431192339307,0.4511062222595496,-2.2508181758937393
0.10567969839377568,0.44983112138519976,-2.2507577031880044
0.11118885364817258,0.4484882681622597,-2.250696833409663
0.11668094647270673,0.4470778710160504,-2.2506355757894267
0.12215514837583145,0.44560014857976465,-2.250573939615315
0.12761063371392528,0.4440553296577721,-2.2505119342312203
0.13304657981636528,0.4424436531873727,-2.2504495690354602
0.138462167110056,0.4407653681990103,-2.250386853479329
0.14385657924340076,0.43902073377495,-2.2503237970656373
0.1492290032096946,0.4372100190064306,-2.250260409347247
0.1545786294699159,0.43533350294930023,-2.250196699925597
0.15990465207490248,0.43339147457814503,-2.250132678449225
0.16520626878689346,0.43138423273891763,-2.250068354612283
0.17048268120041704,0.4293120861000777,-2.2500037381530413
0.17573309486250563,0.4271753531022535,-2.2499388388523993
0.18095671939221997,0.42497436190643245,-2.2498736665323733
0.18615276859946794,0.42270945034069424,-2.2498082310545957
0.19132046060309715,0.4203809658454927,-2.249742542318797
0.19645901794824164,0.4179892654175022,-2.2496766102612895
0.20156766772291107,0.41553471555203375,-2.249610444853446
0.20664564167380156,0.4130176921840354,-2.2495440561001723
0.21169217632131063,0.4104385806276873,-2.2494774540383737
0.21670651307373956,0.407797775514603,-2.2494106487354224
0.22168789834067015,0.40509568073064783,-2.24934365028762
0.2266355836454947,0.40233270935138543,-2.249276468818653
0.2315488257370851,0.3995092835761674,-2.2492091144780515
0.2364268867005816,0.39662583466087636,-2.2491415974396385
0.2412690340672947,0.39368280284933166,-2.249073927899979
0.24607454092369224,0.39068063730337727,-2.2490061160768335
0.25084268601946186,0.38761979603165847,-2.248938172207594
0.2555727538746364,0.3845007458171027,-2.248870106547734
0.2602640348857625,0.38132396214311715,-2.2488019293692494
0.264915825431098,0.3780899291185165,-2.248733650959097
0.2695274279748239,0.37479913940119514,-2.248665281617635
0.27409815117025793,0.37145209412055485,-2.2485968316570597
0.27862730996205415,0.36804930279870324,-2.2485283113998458
0.2655184735254556,0.34193167354843906,-2.2484375259430176
0.26968678780048844,0.33863791245697383,-2.24837316200117
0.2738142457963905,0.3352933376906401,-2.2483087609735004
0.27790022927256436,0.3318984574348371,-2.2482443325644215
0.2819441263436812,0.32845378736721537,-2.248179886480807
0.28594533156973523,0.32495985057736554,-2.248115432430522
0.289903246045063,0.3214171774854441,-2.248050980120962
0.2938172774863163,0.3178263057597494,-2.2479865392575915
0.297686840319376,0.3141877802332613,-2.2479221195424843
0.3015113557651949,0.31050215281915866,-2.247857730672857
0.30529025192456,0.30676998242533027,-2.247793382339623
0.3090229638617601,0.30299183486789044,-2.247729084225924
0.31270893368714925,0.2991682827837181,-2.247664846005688
0.3163476106385958,0.2952999055420282,-2.2476006773421715
0.3199384511618044,0.2913872891549958,-2.247536587886511
0.3234809189895024,0.2874310261874437,-2.24747258727628
0.3269744852194781,0.28343171566561004,-2.2474086851340456
0.33041862839146435,0.27938996298501023,-2.247344891065928
0.3338128345628527,0.27530637981740813,-2.2472812146601653
0.3371565973832333,0.2711815840169128,-2.2472176654856812
0.3404494181677471,0.2670161995252139,-2.247154253090655
0.34369080596924484,0.2628108562759732,-2.2470909870011013
0.3468802776492384,0.2585661900983863,-2.247027876719444
0.35001735794764294,0.2542828426199291,-2.2469649317231046
0.35310157955129406,0.24996146116830784,-2.2469021614630913
0.3561324831612359,0.24560269867262466,-2.246839575362592
0.35910961755877013,0.24120721356377578,-2.246777182815572
0.36203253967025867,0.23677566967409963,-2.246714993185381
0.3649008146306711,0.232308736136287,-2.24665301580336
0.36771401584587093,0.22780708728157348,-2.2465912599674605
0.37047172505363113,0.22327140253722663,-2.2465297349408617
0.37317353238337336,0.2187023663233457,-2.246468449950602
0.3758190364146229,0.2141006679489888,-2.246407414186208
0.3784078442341729,0.20946700150764594,-2.2463466367983407
0.38093957149195123,0.20480206577206975,-2.2462861268974357
0.3834138424555843,0.2001065640884856,-2.246225893552363
0.3858302900636481,0.195381204270192,-2.2461659457890835
0.38818855597760693,0.19062669849057204,-2.246106292589318
0.39048829063242746,0.18584376317552911,-2.246046942889224
0.39272915328586583,0.18103311889536447,-2.245987905578076
0.39491081206642276,0.1761954902561133,-2.24592918949696
0.3970329440199592,0.17133160579035514,-2.2458708034374677
0.39909523515497003,0.16644219784751535,-2.2458127561404044
0.4010973804865092,0.16152800248367402,-2.2457550562945072
0.4030390840787618,0.15658975935089972,-2.2456977125351645
0.4049200590862604,0.15162821158612197,-2.2456407334431496
0.40674002779373963,0.14664410569956288,-2.2455841275433635
0.4084987216546249,0.1416381914627412,-2.2455279033035804
0.41019588132815366,0.1366112217960672,-2.2454720691332115
0.41183125671512255,0.1315639526560442,-2.24541663338207
0.4134046069922599,0.12649714292209363,-2.2453616043391507
0.41491570064521766,0.1214115542830204,-2.2453069902314167
0.4163643155001827,0.11630795112313468,-2.2452527992225972
0.41775023875410217,0.11118710040804715,-2.245199039411995
0.41907326700352054,0.10604977157015509,-2.2451457188333026
0.4203332062720283,0.10089673639383309,-2.245092845453431
0.4215298720363168,0.09572876890034933,-2.2450404271713476
0.42266308925084023,0.09054664523252025,-2.2449884718169253
0.4237326923710791,0.08535114353912232,-2.2449369871498
0.42473852537540835,0.08014304385907695,-2.244885980858244
0.42568044178556513,0.07492312800542492,-2.2448354605580447
0.4265583046857149,0.06969217944910722,-2.2447854337913973
0.4273719867401177,0.06445098320256885,-2.2447359080258105
0.4281213702093907,0.05920032570320212,-2.2446868906530204
0.42880634696536724,0.05394099469664549,-2.2446383889879167
0.42942681850455283,0.04867377911995632,-2.244590410267483
0.42998269596017596,0.04339946898467026,-2.2445429616497465
0.43047390011283576,0.038118855259768464,-2.2444960502127405
0.430900361399744,0.032832729754565526,-2.2444496829534777
0.43126201992256347,0.02754188500153607,-2.2444038667869393
0.43155882545384316,0.022247114139096177,-2.244358608545074
0.43179073744204916,0.016949210794355817,-2.244313914975808
0.4319577250151937,0.011648968965858824,-2.2442697927420703
0.432059766983063,0.00634718290632665,-2.244226248420832
0.43209685183804336,0.001044647005422068,-2.2441832885021533
0.43206897775454967,-0.004257844327450978,-2.2441409193882476
0.4319761525870553,-0.009559496780294191,-2.244099147392559
0.4318183938667253,-0.014859516255595043,-2.244057978738851
0.4315957287966568,-0.020157108987320285,-2.2440174195603078
0.4313081942457259,-0.025451481657809683,-2.243977475898654
0.4309558367410448,-0.030741841514552816,-2.243938153703281
0.4305387124590307,-0.03602739648683306,-2.2438994588303935
0.43005688721508945,-0.04130735530222301,-2.243861397042164
0.4295104364519167,-0.046580927602915274,-2.243823974005906
0.42889944522641904,-0.051847324061873055,-2.24378719529326
0.42822400819525713,-0.05710575649878457,-2.2437510663793896
0.42748422959901666,-0.06235543799580493,-2.243715592642198
0.4266802232450077,-0.0675955830130723,-2.2436807793615556
0.42581211248869694,-0.07282540750397891,-2.24364663171854
0.4248800302137771,-0.07804412903018465,-2.243613154794695
0.42388411881087645,-0.0832509668763561,-2.243580353571301
0.4228245301549122,-0.08844514216461595,-2.2435482329286596
0.4217014255810935,-0.09362587796868774,-2.2435167976453965
0.42051497585957565,-0.0987923994277201,-2.2434860523977758
0.4192653611687725,-0.10394393385977516,-2.24345600175903
0.4179527710673305,-0.10907971087496733,-2.2434266501987055
0.4165774044647685,-0.11419896248823509,-2.243398002082024
0.41513946959078996,-0.11930092323173265,-2.2433700616692565
0.41363918396327065,-0.12438483026682534,-2.243342833115115
0.4120767743549282,-0.12944992349567483,-2.243316320468158
0.4104524767586793,-0.13449544567239805,-2.2432905276702115
0.40876653635168797,-0.1395206425137863,-2.2432654585558076
0.4070192074581135,-0.14452476280956936,-2.2432411168516353
0.4052107535105609,-0.1495070585322094,-2.2432175061760082
0.4033414470102422,-0.1544667849462112,-2.2431946300383494
0.40141156948585316,-0.159403200716933,-2.2431724918386875
0.39942141145117194,-0.16431556801888547,-2.2431510948671756
0.39737127236138736,-0.16920315264350205,-2.243130442303619
0.3952614605681607,-0.17406522410636813,-2.243110537217024
0.3930922932734305,-0.1789010557538945,-2.2430913825651566
0.3908640964819656,-0.1837099248694207,-2.243072981194127
0.38857720495267256,-0.18849111277873473,-2.243055335837976
0.3862319621486676,-0.19324390495499472,-2.243038449118294
0.3838287201861166,-0.19796759112303888,-2.24302232354384
0.38136783978185346,-0.20266146536307075,-2.24300696151019
0.3788496901997818,-0.20732482621370393,-2.242992365299392
0.37627464919607023,-0.2119569767743561,-2.242978537079644
0.37364310296314746,-0.2165572248069746,-2.2429654789049818
0.3709554460725042,-0.2211248828370859,-2.2429531927149915
0.3682120814163124,-0.22565926825414706,-2.242941680334529
0.36541342014786804,-0.23015970341119746,-2.242930943473463
0.3625598816208666,-0.23462551572378507,-2.24292098372643
0.3596518933275191,-0.23905603776816542,-2.24291180257261
0.3566898908355177,-0.24345060737875207,-2.242903401375513
0.3536743177238597,-0.24780856774481116,-2.2428957813827872
0.3506056255175381,-0.2521292675063838,-2.2428889437260415
0.3474842736211088,-0.2564120608494249,-2.2428828894206827
0.34431072925114087,-0.26065630760014785,-2.242877619365774
0.34108546736756445,-0.2648613733185573,-2.2428731343439043
0.3378089706039177,-0.2690266293911653,-2.24286943502108
0.33448172919651137,-0.2731514531228691,-2.2428665219466275
0.33110424091251095,-0.277235227827989,-2.2428643955531165
0.32767701097695623,-0.2812773429204437,-2.242863056156298
0.32420055199871844,-0.2852771940030606,-2.242862503955061
0.3206753838954114,-0.2892341829560013,-2.242862739031401
0.31710203381726526,-0.29314771802429596,-2.242863761350413
0.3134810360699706,-0.29701721390447244,-2.242865570760291
0.3098129320365067,-0.3008420918302682,-2.242868166992354
0.30609827009796087,-0.3046217796574168,-2.2428715496610816
0.30233760555335404,-0.30835571194749145,-2.242875718264171
0.29853150053847627,-0.3120433300508024,-2.242880672182605
0.2946805239437519,-0.31568408218832894,-2.242886410680745
0.2907852513311359,-0.31927742353268196,-2.2428929329064307
