0.5019149785288609,-0.23327134506344469,-1.8656961636467335
0.4993088912970107,-0.23955424788609525,-1.8667964969625788
0.49662507015507334,-0.24580875599940782,-1.867900311733985
0.4938637726158054,-0.2520338973687451,-1.8690074514862671
0.4910252684672385,-0.25822870077954896,-1.8701177586968512
0.4881098398204464,-0.26439219599291064,-1.8712310748119128
0.4851177811554427,-0.2705234139031612,-1.872347240263469
0.48204939936514074,-0.27662138669747405,-1.8734660944869257
0.47890501379732764,-0.2826851480174452,-1.874587475939077
0.47568495629458396,-0.2887137331226459,-1.8757112221165746
0.4723895712320933,-0.2947061790561222,-1.876837169574856
0.46901921555328047,-0.3006615248118143,-1.877965153947539
0.46557425880321573,-0.3065788115038869,-1.8790950099662895
0.4620550831597288,-0.31245708253792565,-1.8802265714811572
0.45846208346217254,-0.31829538378398325,-1.8813596714813852
0.4547956672377688,-0.3240927637514509,-1.8824941421166965
0.4510562547254869,-0.3298482737657127,-1.883629814719056
0.44724427889738977,-0.33556096814655506,-1.8847665198249093
0.44336018547738404,-0.3412299043883069,-1.885904087197904
0.4394044329573236,-0.34685414334165865,-1.8870423458520866
0.43537749261040076,-0.3524327493971332,-1.8881811240755826
0.4312798485017686,-0.35796479067016895,-1.889320249454755
0.4271119974963385,-0.3634493391877665,-1.890459548898845
0.4228744492636874,-0.36888547107666997,-1.8915988486650912
0.41856772628002686,-0.3742722667530235,-1.8927379743843293
0.41419236382717434,-0.3796088111134628,-1.8938767510870684
0.40974890998846203,-0.38489419372760153,-1.895015003230048
0.40523792564154154,-0.39012750903184823,-1.8961525547232663
0.40065998444802164,-0.3953078565245094,-1.8972892289574863
0.3960156728398807,-0.4004343409621315,-1.89842484883221
0.39130559000261267,-0.4055060725570141,-1.899559236784126
0.38653034785504353,-0.4105221671758463,-1.9006922148160206
0.3816905710257704,-0.4154817465394046,-1.901823604526151
0.37678689682617783,-0.4203839384232504,-1.902953227138082
0.3718199752199676,-0.425227876859372,-1.9040809035309776
0.3667904687891717,-0.4300127023386962,-1.905206454270343
0.36169905269659086,-0.4347375620144107,-1.906329699639216
0.35654641464460823,-0.43940160990603283,-1.9074504596697992
0.35133325483034605,-0.44400400710414784,-1.908568554175532
0.3460602858971155,-0.4485439219757488,-1.9096838027835934
0.3407282328821093,-0.4530205303701132,-1.9107960249678313
0.3353378331603138,-0.457433015825129,-1.9119050400821114
0.3298898363845863,-0.46178056977400633,-1.9130106673940803
0.32438500442186624,-0.4660623917522912,-1.914112726119335
0.31882411128548815,-0.4702776896051034,-1.9152110354559908
0.31320794306354777,-0.47442567969452476,-1.916305414619642
0.30753729784330613,-0.478505587107045,-1.9173956828787058
0.3018129856315928,-0.48251664586098986,-1.9184816595901406
0.29603582827117064,-0.4864580991138491,-1.919563164235533
0.29020665935305096,-0.4903291993694106,-1.9206400164575392
0.2843263241247256,-0.49412920868461757,-1.9217120360966773
0.2783956793942845,-0.49785739887606484,-1.9227790432284564
0.27241559343041466,-0.5015130517260363,-1.9238408582008333
0.2663869458582467,-0.5050954591879979,-1.9248973016719877
0.26031062755103757,-0.5086039235914536,-1.9259481946484045
0.2541875405176778,-0.5120377578460685,-1.9269933585232495
0.24801859778599702,-0.515396285644971,-1.9280326151150298
0.24180472328187547,-0.5186788416671319,-1.9290657867065288
0.23554685170414258,-0.5218847717787256,-1.930092696083995
0.22924592839525168,-0.5250134332333848,-1.9311131665765842
0.22290290920774025,-0.5280641948712382,-1.932127022096031
0.21651876036646947,-0.5310364373166407,-1.9331340871765443
0.2100944583266332,-0.5339295531744971,-1.934134187014907
0.20363098962756038,-0.5367429472250757,-1.9351271475107716
0.19712935074230084,-0.5394760366172124,-1.936112795307133
0.19059054792301006,-0.5421282510598084,-1.9370909578309672
0.1840155970421478,-0.5446990330115119,-1.9380614633340187
0.17740552342949065,-0.5471878378684926,-1.9390241409337214
0.17076136170499423,-0.5495941341501981,-1.9399788206542397
0.16408415560751496,-0.5519174036829938,-1.9409253334676144
0.15737495781940497,-0.5541571417815853,-1.9418635113349911
0.15063482978702306,-0.5563128574281182,-1.942793187247926
0.14386484153717977,-0.5583840734488522,-1.943714195269739
0.13706607148953906,-0.560370326688313,-1.9446263705769096
0.13023960626502765,-0.5622711681808127,-1.945529549500494
0.12338654049027332,-0.5640861633192406,-1.9464235695675403
0.11650797659811633,-0.5658148920210226,-1.9473082695424933
0.10960502462424013,-0.5674569488911486,-1.9481834894685701
0.10267880199995057,-0.5690119433821643,-1.949049070709079
0.09573043334117039,-0.5704794999510323,-1.9499048559886776
0.08876105023368946,-0.5718592582127576,-1.9507506894345419
0.0817717910147146,-0.5731508730906835,-1.951586416617429
0.07476380055079307,-0.5743540149633577,-1.9524118845926242
0.06773823001215855,-0.575468369807872,-1.953226941940736
0.06069623664355198,-0.5764936393395808,-1.954031438808341
0.053638983531600536,-0.577429541148102,-1.954825226948443
0.04656763936880593,-0.5782758088295086,-1.9556081597607367
0.0394833782142169,-0.5790321921146173,-1.956380092331653
0.03238737925086263,-0.5796984569932827,-1.9571408814741675
0.02528082654000732,-0.580274385834611,-1.9578903857673546
0.017318390564881304,-0.5536953021473809,-1.95502886731566
0.010526114557859042,-0.5540620021927448,-1.9557202429162601
0.0037274248748909765,-0.5543421929472836,-1.956400462908929
-0.0030765388168882764,-0.5545357368737771,-1.9570694009548395
-0.009884633585795647,-0.5546425124017382,-1.9577269325775892
-0.01669571348194184,-0.5546624140120084,-1.958372935197969
-0.023508629785878428,-0.5545953523170297,-1.959007288168361
-0.03032223125946245,-0.554441254136725,-1.9596298728067467
-0.03713536439884917,-0.5542000625699199,-1.9602405724303151
-0.04394687368952168,-0.5538717370612475,-1.960839272388644
-0.0507556018632638,-0.5534562534634702,-1.9614258600964438
-0.05756039015698158,-0.5529536040951649,-1.962000225065845
-0.06436007857327483,-0.552363797793714,-1.9625622589382143
-0.07115350614266332,-0.5516868599635465,-1.96311185551548
-0.07793951118736248,-0.55092283261958,-1.9636489107909503
-0.08471693158650989,-0.5500717744258145,-1.964173322979612
-0.09148460504273757,-0.5491337607290292,-1.9646849925478884
-0.09824136934998445,-0.5481088835875422,-1.9651838222428426
-0.10498606266244323,-0.5469972517949867,-1.9656697171208148
-0.11171752376453235,-0.5457989908990705,-1.9661425845754679
-0.11843459234178469,-0.5445142432152779,-1.9666023343652375
-0.12513610925254182,-0.5431431678354836,-1.9670488786401636
-0.13182091680034091,-0.5416859406314469,-1.9674821319680913
-0.13848785900688512,-0.5401427542531593,-1.9679020113602297
-0.1451357818854782,-0.5385138181220192,-1.9683084362960477
-0.15176353371481277,-0.5367993584188133,-1.9687013287474993
-0.1583699653129951,-0.5349996180664852,-1.9690806132025633
-0.16495393031168948,-0.5331148567076744,-1.9694462166880808
-0.17151428543026634,-0.5311453506770142,-1.9697980687918828
-0.1780498907498355,-0.5290913929681754,-1.9701361016841905
-0.18455960998704712,-0.5269532931956548,-1.970460250138282
-0.19104231076754113,-0.5247313775512956,-1.9707704515504068
-0.19749686489892757,-0.5224259887555486,-1.9710666459589423
-0.20392214864317604,-0.5200374860034689,-1.9713487760627786
-0.21031704298830034,-0.5175662449054574,-1.9716167872389232
-0.2166804339192123,-0.5150126574227539,-1.97187062755931
-0.22301121268763135,-0.5123771317976954,-1.9721102478068149
-0.2293082760809276,-0.5096600924787504,-1.9723356014904494
-0.2355705266897812,-0.5068619800403528,-1.972546644859748
-0.24179687317453846,-0.5039832510975494,-1.972743336918316
-0.24798623053014793,-0.501024378215493,-1.972925639436551
-0.25413752034955756,-0.4979858498138001,-1.973093516963516
-0.2602496710854571,-0.4948681700658101,-1.9732469368379628
-0.2663216183102496,-0.4916718587927756,-1.9733858691985038
-0.2723523049741347,-0.48839745135302254,-1.973510286992916
-0.27834068166119313,-0.48504549852611656,-1.9736201659865797
-0.2842857068433542,-0.4816165663920818,-1.9737154847700469
-0.2901863471321369,-0.4781112362057151,-1.9737962247657268
-0.2960415775280526,-0.4745301042660448,-1.9738623702336966
-0.3018503816675586,-0.4708737817809855,-1.9739139082766237
-0.3076117520674543,-0.46714289472724274,-1.9739508288438024
-0.3133246903666127,-0.46333808370552565,-1.9739731247343004
-0.31898820756494095,-0.459460003791126,-1.9739807915992131
-0.32460132425946603,-0.455509324379928,-1.9739738279430283
-0.33016307087744196,-0.45148672902991227,-1.9739522351240908
-0.3356724879063797,-0.4473929152982238,-1.973916017354179
-0.3411286261208987,-0.44322859457387437,-1.9738651816971873
-0.34653054680630324,-0.43899449190615125,-1.9737997380669103
-0.35187732197878907,-0.4346913458288099,-1.9737196992239425
-0.3571680346021864,-0.4303199081801269,-1.9736250807716815
-0.3624017788011491,-0.42588094391889597,-1.9735159011514511
-0.3675776600707,-0.4213752309364473,-1.973392181636732
-0.372694795482046,-0.41680355986477763,-1.973253946326516
-0.3777523138845797,-0.4121667338808774,-1.9731012221377837
-0.3827493561039842,-0.4074655685073441,-1.9729340387971062
-0.38768507513636113,-0.40270089140937515,-1.9727524288313805
-0.3925586363383076,-0.39787354218822957,-1.9725564275577017
-0.3973692176128644,-0.39298437217125975,-1.972346073072381
-0.4021160095912645,-0.38803424419860544,-1.9721214062391093
-0.40679821581041353,-0.38302403240665084,-1.9718824706762814
-0.4114150528860347,-0.37795462200834634,-1.9716293127434827
-0.4159657506814143,-0.3728269090704946,-1.9713619815271481
-0.42044955247168664,-0.36764180028810656,-1.9710805288253996
-0.4248657151036009,-0.36240021275593176,-1.9707850091320769
-0.42921350915071343,-0.3571030737372687,-1.9704754796199608
-0.43349221906395274,-0.3517513204301651,-1.9701520001232102
-0.4377011433175103,-0.34634589973111146,-1.9698146331190134
-0.4418395945500047,-0.3408877679963459,-1.9694634437084682
-0.44590689970088165,-0.3353778908008729,-1.9690984995967031
-0.449902400142006,-0.3298172426953112,-1.9687198710722478
-0.45382545180440675,-0.3242068069606849,-1.9683276309856665
-0.4576754253001423,-0.31854757536126876,-1.967921854727467
-0.4614517060392539,-0.31284054789559984,-1.9675026202052943
-0.465153694341779,-0.3070867325457722,-1.9670700078204262
-0.46878080554479584,-0.3012871450251296,-1.9666241004435805
-0.47233247010447993,-0.2954428085244703,-1.9661649833900499
-0.475808133693152,-0.28955475345687803,-1.9656927443941772
-0.4792072572913006,-0.28362401720129427,-1.9652074735831824
-0.4825293172745631,-0.2776516438449531,-1.9647092634503616
-0.4857738054956601,-0.2716386839247855,-1.964198208827668
-0.4889402293612722,-0.26558619416791346,-1.9636744068576928
-0.4920281119038524,-0.2594952372313487,-1.9631379569650562
-0.4950369918483781,-0.25336688144101155,-1.9625889608272322
-0.4979664236740402,-0.24720220053018108,-1.962027522344817
-0.5008159776708739,-0.2410022733774915,-1.961453747611252
-0.5035852399913406,-0.23476818374459554,-1.9608677448820369
-0.5062738126968684,-0.22850102001359315,-1.9602696245434215
-0.5088813137993657,-0.2222018749243553,-1.959659499080618
-0.5114073772977242,-0.21587184531183645,-1.9590374830455328
-0.5138516532093276,-0.20951203184350317,-1.958403693024046
-0.5162138075965897,-0.203123538756975,-1.9577582476028474
-0.5184935225885468,-0.19670747359799304,-1.9571012673358545
-0.5206904963975253,-0.19026494695882334,-1.9564328747102162
-0.5228044433309226,-0.18379707221720148,-1.9557531941119395
-0.5248350937981248,-0.17730496527592032,-1.9550623517911339
-0.5267821943126025,-0.17078974430316682,-1.954360475826909
-0.5286455074892167,-0.16425252947371555,-1.9536476960919344
-0.5304248120367766,-0.15769444271106808,-1.9529241442166774
-0.5321199027458918,-0.15111660743065297,-1.9521899535533447
-0.5337305904721592,-0.1445201482841687,-1.9514452591395341
-0.5352567021147369,-0.13790619090518094,-1.9506901976616275
-0.536698080590346,-0.13127586165605745,-1.9499249074179241
-0.5380545848027606,-0.12463028737633879,-1.949149528281554
-0.5393260896078282,-0.11797059513263712,-1.9483642016631697
-0.5405124857740842,-0.11129791197015163,-1.9475690704734412
-0.5416136799390115,-0.10461336466588576,-1.9467642790853783
-0.5426295945610083,-0.09791807948365346,-1.9459499732964811
-0.5435601678671199,-0.09121318193096409,-1.9451263002907555
-0.5444053537966006,-0.08449979651785496,-1.9442934086005894
-0.5451651219403685,-0.07777904651776721,-1.9434514480685283
-0.5458394574764173,-0.07105205373052663,-1.9426005698089486
-0.5464283611012563,-0.06431993824752058,-1.9417409261696597
-0.5469318489574402,-0.05758381821913182,-1.9408726706934365
-0.5473499525572688,-0.05084480962450688,-1.9399959580795167
-0.5476827187027172,-0.044104026043728796,-1.9391109441450598
-0.5479302094016778,-0.03736257843245967,-1.9382177857866
-0.5480925017805838,-0.030621574899116055,-1.9373166409415006
-0.54816968799349,-0.02388212048464061,-1.9364076685494216
-0.548161875127687,-0.017145316944936328,-1.9354910285138298
-0.5480691851059285,-0.010412262536008675,-1.9345668816635533
-0.547891754585345,-0.003684051801886639,-1.9336353897143979
-0.5476297348531263,0.0030382246346394664,-1.9326967152308452
-0.5472832917190533,0.00975348027839727,-1.9317510215878475
-0.5468526054049567,0.01646063296529206,-1.9307984729327201
-0.5463378704311858,0.023158605062795126,-1.9298392341471666
-0.5457392955001682,0.02984632366741501,-1.9288734708094306
-0.5450571033771434,0.03652272079911192,-1.9279013491566004
-0.5442915307681531,0.04318673359261755,-1.9269230360470755
-0.5434428281953696,0.049837304485621674,-1.9259386989232044
-0.5425112598698495,0.056473381403785425,-1.924948505774116
-0.5414971035617905,0.0630939179425603,-1.9239526250987438
-0.5404006504683818,0.06969787354576805,-1.9229512258690658
-0.5392222050793275,0.07628421368092857,-1.9219444774935692
-0.5379620850401278,0.08285191001129481,-1.9209325497809449
-0.5366206210132047,0.08939994056458374,-1.9199156129040338
-0.5351981565369526,0.09592728989837604,-1.9188938373640272
-0.5336950478827992,0.10243294926216431,-1.9178673939549336
-0.5321116639103627,0.10891591675603471,-1.9168364537283262
-0.5304483859207837,0.11537519748596907,-1.9158011879583763
-0.5287056075083199,0.12180980371575308,-1.9147617681071831
-0.5268837344102838,0.12821875501547533,-1.913718365790412
-0.5249831843554064,0.13460107840661983,-1.912671152743247
-0.5230043869107088,0.14095580850373168,-1.911620300786666
-0.5209477833269632,0.1472819876526657,-1.9105659817940512
-0.5188138263828254,0.1535786660654022,-1.9095083676581395
-0.5166029802277161,0.15984490195143913,-1.9084476302583155
-0.5143157202235336,0.16607976164575977,-1.9073839414282676
-0.5119525327852765,0.17228231973337513,-1.9063174729240016
-0.5095139152206525,0.17845165917044983,-1.9052483963922233
-0.5070003755687535,0.1845868714020201,-1.9041768833390988
-0.5044124324378706,0.19068705647631032,-1.9031031050993932
-0.5017506148425293,0.19675132315565533,-1.9020272328059995
-0.49901546203981295,0.20277878902405067,-1.9009494373598563
-0.4962075233650565,0.2087685805913314,-1.8998698894002664
-0.4933273580669758,0.21471983339400946,-1.8987887592756163
-0.49037553514231075,0.22063169209277267,-1.8977062170145016
-0.487352633170048,0.22650331056667516,-1.8966224322972653
-0.48425924014529664,0.23233385200403509,-1.8955375744279481
-0.4810959533128837,0.2381224889900593,-1.8944518123066598
-0.47786337900073894,0.24386840359122058,-1.8933653144023714
-0.4745621324531329,0.24957078743641295,-1.8922782487261307
-0.4711928376638334,0.25522884179491034,-1.8911907828047043
-0.4677561272092499,0.26084177765115035,-1.890103083654653
-0.4642526420816197,0.2664088157763828,-1.8890153177568352
-0.4606830315223067,0.2719291867971991,-1.8879276510313436
-0.45704795285526423,0.2774021312609863,-1.8868402488128784
-0.4533480713207303,0.28282689969832675,-1.8857532758265572
-0.4495840599092046,0.2882027526823834,-1.8846668961641597
-0.44575659919576766,0.2935289608853033,-1.8835812732608102
-0.44186637717480004,0.2988048051316703,-1.8824965698721021
-0.43791408909514723,0.30402957644905004,-1.8814129480516557
-0.43390043729579314,0.30920257611565594,-1.8803305691291188
-0.429826131042082,0.3143231157051826,-1.879249593688601
-0.42569188636255023,0.31939051712883537,-1.8781701815475498
-0.4214984258864046,0.32440411267460656,-1.8770924917360614
-0.41724647868170534,0.3293632450438264,-1.8760166824766271
-0.4129367800942884,0.33426726738504137,-1.8749429111643134
-0.4085700715874816,0.3391155433252502,-1.8738713343473778
-0.40414710058264997,0.34390744699854786,-1.8728021077083137
-0.3996686203006127,0.3486423630722176,-1.8717353860453247
-0.39513538960397887,0.35331968677031017,-1.870671323254229
-0.39054817284042787,0.3579388238947618,-1.8696100723107842
-0.3859077396869856,0.3624991908440855,-1.8685517852534417
-0.3812148649953197,0.3670002146296902,-1.8674966131665125
-0.3764703286380997,0.3714413328898622,-1.8664447061637577
-0.3716749153564448,0.37582199390146453,-1.8653962133723885
-0.3668294146085005,0.3801416565893896,-1.8643512829174804
-0.36193462041916524,0.38439979053382,-1.8633100619067917
-0.3569913312310058,0.38859587597533585,-1.8622726964159895
-0.3520003497563803,0.3927294038179197,-1.861239331474273
-0.3469624828307996,0.396799875629905,-1.8602101110503966
-0.3418785412675544,0.4008068036429097,-1.8591851780390825
-0.3367493397136243,0.4047497107488097,-1.8581646742478248
-0.3315756965069006,0.4086281304947896,-1.8571487403840765
-0.32635843353473476,0.4124416070765263,-1.8561375160428153
-0.3210983760938409,0.4161896953295435,-1.8551311396944896
-0.315796352751563,0.41987196071879207,-1.8541297486733295
-0.31045319520853204,0.4234879793264942,-1.8531334791660286
-0.30506973816272037,0.42703733783830644,-1.852142466200785
-0.299646819174918,0.43051963352784,-1.8511568436367016
-0.2941852785356362,0.4339344742395901,-1.8501767441535337
-0.28868595913345335,0.43728147837031855,-1.849202299241788
-0.2831497063248198,0.4405602748489327,-1.8482336391931595
-0.2775773678053209,0.44377050311491245,-1.8472708930913075
-0.2719697934824205,0.4469118130953225,-1.8463141888029597
-0.26632783534967885,0.4499838651804637,-1.8453636529693433
-0.2606523473624659,0.452986330198199,-1.844419410997937
-0.25494418531516155,0.4559188893870083,-1.843481587054537
-0.24920420671986185,0.4587812343678059,-1.8425503040556297
-0.24343327068658038,0.4615730671145737,-1.841625683661073
-0.23763223780496118,0.46429409992384657,-1.8407078462670696
-0.23180197002749364,0.46694405538309586,-1.8397969109994379
-0.22594333055423524,0.4695226663380554,-1.8388929957071651
-0.22005718371904445,0.4720296758590253,-1.837996216956243
-0.21414439487731332,0.4744648372062045,-1.8371066900237778
-0.20820583029521034,0.47682791379408435,-1.8362245288923715
-0.20224235704041585,0.479118679154951,-1.8353498462447626
-0.19625484287436126,0.4813369169015304,-1.8344827534587265
-0.190244156145952,0.48348242068882197,-1.8336233606022283
-0.18421116568678336,0.4855549941751537,-1.8327717764288192
-0.1781567407078281,0.48755445098250316,-1.8319281083732748
-0.1720817506976022,0.4894806146561169,-1.8310924625474658
-0.16598706532178986,0.4913333186234699,-1.8302649437364582
-0.15987355432432307,0.4931124061526003,-1.8294456553948342
-0.15374208742991025,0.4948177303098545,-1.8286346996432314
-0.14759353424799315,0.4964491539170807,-1.8278321772650916
-0.1414287641781343,0.4980065495083042,-1.8270381877036148
-0.13524864631680902,0.49948979928591913,-1.826252829058912
-0.12905404936560383,0.5008987950764302,-1.8254761980853504
-0.12284584154079428,0.5022334382857796,-1.8247083901890895
-0.11662489048430204,0.5034936398542883,-1.8239494994257943
-0.11039206317600561,0.504679320211246,-1.823199618498528
-0.1041482258473952,0.5057904092291804,-1.822458838755815
-0.09789424389655951,0.5068268461778356,-1.8217272501898665
-0.09163098180447837,0.5077885796778908,-1.8210049414349687
-0.08535930305261821,0.5086755676544469,-1.8202919997660219
-0.07908007004179893,0.5094877772903111,-1.8195885110972294
-0.07279414401232938,0.5102251849791061,-1.8188945599809296
-0.0665023849653788,0.5108877762782317,-1.818210229606565
-0.06020565158558059,0.5114755458617055,-1.8175356017997824
-0.05390480116483494,0.5119884974729075,-1.8168707570216622
-0.04760068952730516,0.5124266438772546,-1.8162157743680691
-0.04129417095557681,0.5127900068148288,-1.8155707315691154
-0.03498609811796428,0.5130786169529838,-1.8149357049887427
-0.02867732199694877,0.5132925138389509,-1.8143107696244023
-0.02236869181871598,0.5134317458524694,-1.8136959991068438
-0.01606105498378625,0.5134963701584597,-1.8130914656999948
-0.009755256998701552,0.5134864526597636,-1.8124972403009365
-0.0034521414087621623,0.5134020679499686,-1.8119133924399613
0.0028474502682233373,0.5132432992663387,-1.8113399902807195
0.009142678607182347,0.5130102384428676,-1.8107771006204343
0.015432706340053715,0.5127029858634748,-1.8102247888901992
0.02171669841910287,0.5123216504153608,-1.8096831191553364
0.027993822079310792,0.511866349442538,-1.8091521541158229
0.03426324689985525,0.5113372086995533,-1.8086319551067758
0.04052414486470292,0.5107343623054195,-1.8081225820989921
0.04677569042234715,0.5100579526977667,-1.8076240936995402
0.05301706054470057,0.5093081305872305,-1.8071365471523988
0.05924743478518099,0.5084850549120888,-1.8066599983391376
0.06546599533599948,0.5075888927931616,-1.806194501779639
0.07167192708468915,0.5066198194889808,-1.8057401106328528
0.07786441766988413,0.5055780183512496,-1.8052968766975843
0.08404265753638694,0.504463680780592,-1.8048648504133096
0.09020583998953487,0.5032770061826113,-1.8044440808610138
0.09635316124889987,0.5020182019242603,-1.8040346157640514
0.10248382050134272,0.500687483290535,-1.8036365014890237
0.1085970199534402,0.4992850734414988,-1.8032497830466685
0.11469196488332116,0.4978112033696443,-1.802874504092762
0.12076786369192205,0.49626611185759956,-1.8025107069290287
0.12682392795369954,0.49465004543618385,-1.8021584325040527
0.13285937246681112,0.49296325834281945,-1.801817720414192
0.13887341530280126,0.4912060124803026,-1.8014886089044932
0.1448652778558042,0.48937857737593937,-1.8011711348695985
0.1508341848912976,0.4874812301410477,-1.800865333854646
0.1567793645944275,0.48551425543082977,-1.800571240056164
0.16270004861792328,0.4834779454046167,-1.8002888863229467
0.16859547212963774,0.4813725996864857,-1.800018304156922
0.17446487385972298,0.47919852532625323,-1.7997595237139965
0.18030749614747804,0.47695603676083986,-1.7995125738048838
0.18612258498787973,0.47464545577601275,-1.7992774818959123
0.19190939007783256,0.47226711146849776,-1.7990542741098063
0.19766716486214753,0.46982134020846644,-1.7988429752264452
0.20339516657928655,0.4673084856023893,-1.7986436086835917
0.2090926563068821,0.4647288984562582,-1.7984561965775936
0.2147588990070656,0.4620829367391714,-1.798280759664053
0.22039316357162222,0.45937096554727636,-1.7981173173584646
0.22599472286699088,0.4565933570680709,-1.7979658877368163
0.23156285377914157,0.4537504905450503,-1.7978264875361603
0.23709683725833955,0.45084275224270315,-1.797699132155143
0.24259595836383024,0.44787053541184024,-1.7975838356544966
0.24805950630845436,0.4448342402552608,-1.7974806107574952
0.2534867745032269,0.4417342738937372,-1.7973894688503687
0.25887706060188787,0.43857105033232147,-1.7973104199826744
0.2642296665454587,0.435344990426955,-1.7972434728676299
0.26954389860681227,0.43205652185138227,-1.797188634882401
0.27481906743528633,0.42870607906435143,-1.7971459120683473
0.28005448810135725,0.42529410327709505,-1.7971153091312244
0.28524948014138746,0.42182104242108376,-1.7970968294413405
0.2904033676024793,0.4182873511160341,-1.7970904750336714
0.2955154790874384,0.41469349063816846,-1.797096246607927
0.3005851477998801,0.4110399288887064,-1.797114143528576
0.3056117115894842,0.4073271403625833,-1.797144163824824
0.3105945129974278,0.4035556061173757,-1.7971863041905483
0.3155328993020028,0.39972581374242677,-1.7972405599841854
0.32042622256444614,0.3958382573281521,-1.7973069252285756
0.32527383967498946,0.3918934374355176,-1.7973853926107646
0.330075112399153,0.3878918610656699,-1.797475953481759
0.3348294074242965,0.38383404162970514,-1.7975785978562397
0.33953609640644017,0.3797204989185638,-1.797693314412233
0.34419455601737853,0.3755517590730306,-1.7978200904907393
0.34880416799209274,0.3713283545538274,-1.7979589120953214
0.3533643191764857,0.3670508241117777,-1.7981097638916514
0.35787440157544526,0.36271971275803155,-1.7982726292070204
0.3623338124012573,0.358335571734325,-1.7984474900298084
0.36674195412237426,0.35389895848326536,-1.7986343270089187
0.37109823451255974,0.3494104366186137,-1.7988331194531757
0.37540206670041465,0.34487057589555536,-1.7990438453306907
0.3796528692193018,0.34027995218093177,-1.7992664812681916
0.3838500660576795,0.33563914742341633,-1.7995010025503246
0.3879930867098515,0.33094874962361764,-1.7997473831189275
0.3920813662271505,0.32620935280408214,-1.80000559557227
0.39611434526955774,0.3214215569791843,-1.8002756111642746
0.4000914701577767,0.3165859681248743,-1.8005573998037108
0.4040121929257603,0.3117031981482709,-1.800850930053367
0.4078759713737105,0.30677386485706754,-1.8011561691292062
0.41168226912154765,0.3017985919287399,-1.8014730828994994
0.4154305556628682,0.29677800887952266,-1.8018016358839495
0.4191203064193874,0.29171275103314226,-1.8021417912527997
0.4227510027958804,0.2866034594892736,-1.8024935108259317
0.4263221322356262,0.2814507810917028,-1.8028567550719592
0.4298331882763553,0.27625536839617265,-1.8032314831073142
0.43328367060671424,0.27101787963788143,-1.8036176526953325
0.4366730851232414,0.2657389786986197,-1.8040152202453414
0.4400009439878665,0.2604193350735089,-1.8044241408117505
0.4432667656859298,0.2550596238373308,-1.8048443680931487
0.44647007508472825,0.24966052561041044,-1.8052758544314147
0.4496104034925876,0.24422272652403382,-1.8057185508108378
0.45268728871846264,0.23874691818537494,-1.806172406857258
0.45570027513206474,0.23323379764190544,-1.8066373708372252
0.45864891372451905,0.22768406734525976,-1.8071133896571832
0.46153276216954936,0.22209843511453004,-1.8076004088626811
0.4643513848851864,0.21647761409897048,-1.8080983726376159
0.4671043530960038,0.210822322740073,-1.8086072238035094
0.4697912448958711,0.20513328473300224,-1.8091269038188256
0.4724116453112283,0.19941122898734825,-1.8096573527783288
0.4749651463648707,0.19365688958718452,-1.8101985094124917
0.4774513471402447,0.18787100575039356,-1.8107503110869512
0.479869853846246,0.18205432178723685,-1.8113126938020205
0.4822202798825146,0.17620758705814488,-1.8118855921922623
0.48450224590521973,0.17033155593069715,-1.8124689395261222
0.4867153798933282,0.16442698773576428,-1.8130626677056352
0.4888593172153457,0.15849464672278543,-1.8136667072661992
0.4909337006965235,0.152535302014159,-1.8142809873764312
0.4929381806865205,0.14654972755870826,-1.8149054358381012
0.4948724151275088,0.14053870208420857,-1.8155399790861544
0.49673606962271377,0.13450300904893409,-1.816184542188826
0.49852881750537387,0.1284434365922111,-1.8168390488478494
0.5002503399081095,0.12236077748393946,-1.817503421398768
0.5019003258326866,0.11625582907305972,-1.8181775808113518
0.5034784722201594,0.11012939323494024,-1.818861446690126
0.5049844840213783,0.10398227631765583,-1.8195549372750148
0.5064180742678481,0.09781528908712875,-1.820257969442108
0.5077789641429171,0.09162924667110699,-1.820970458704552
0.509066883053281,0.08542496850195808,-1.8216923192135772
0.5102815687007833,0.07920327825824054,-1.8224234637596557
0.5114227671544938,0.072965003805041,-1.8231638037738094
0.5124902329230427,0.06671097713303623,-1.8239132493290597
0.513483729027192,0.060442034296267946,-1.824671709142035
0.5144030270726221,0.05415901534859427,-1.8254390905747353
0.5152479073229104,0.04786276427879647,-1.8262152996364618
0.5160181587726795,0.041554128944317856,-1.8270002409859163
0.5167135792208902,0.03523396100360806,-1.8277938179334783
0.5173339753442554,0.028903115847046232,-1.8285959324436614
0.5178791627707486,0.022562452526420508,-1.8294064851377578
0.5183489661531813,0.0162128336829449,-1.8302253752966773
0.5187432192428199,0.009855125473778722,-1.8310525008639815
0.5190617649630174,0.0034901974970397674,-1.8318877584491273
0.5193044554828274,-0.0028810772847261126,-1.8327310433309167
0.5194711522905741,-0.009257822622626928,-1.833582249461165
0.5195617262673433,-0.015639159061091177,-1.8344412694685894
0.519576057760369,-0.02202420401913536,-1.835307994662928
0.5195140366562767,-0.02841207187325166,-1.8361823150392904
0.5193755624541572,-0.03480187404193788,-1.8370641192827482
0.5191605443384302,-0.04119271907189102,-1.8379532947731718
0.5188689012514692,-0.04758371272588216,-1.8388497275903177
0.5185005619659491,-0.053973958072326134,-1.8397533025191732
0.5180554651568793,-0.06036255557657508,-1.8406639030555647
0.5175335594732898,-0.06674860319393902,-1.841581411412034
0.5169348036095273,-0.07313119646446437,-1.8425057085239887
0.5162591663761261,-0.07950942860947219,-1.8434366740561354
0.5155066267702144,-0.08588239062988252,-1.8443741864091965
0.5146771740454139,-0.09224917140633401,-1.8453181227269198
0.5137708077811941,-0.09860885780111169,-1.8462683589033864
0.51278753795164,-0.10496053476189383,-1.8472247695906203
0.5117273849935879,-0.11130328542734173,-1.848187228206508
0.5105903798740906,-0.11763619123452512,-1.8491556069430324
0.5093765641571651,-0.12395833202820838,-1.8501297767748264
0.5080859900697817,-0.1302687861719955,-1.8511096074680502
0.5067187205670453,-0.13656663066135716,-1.8520949675896032
0.5052748293965271,-0.1428509412385287,-1.853085724516667
0.5037544011616997,-0.1491207925093,-1.854081744446593
0.5021575313844284,-0.1553752580616922,-1.8550828924071363
0.5004843265664689,-0.16161341058653952,-1.8560890322670391
0.4987349042499278,-0.16783432199996262,-1.857100026746971
0.4969093930766361,-0.1740370635677442,-1.8581157374308337
0.4950079328463822,-0.18022070603161539,-1.8591360247774253
0.49303067457396227,-0.1863843197374366,-1.8601607481324844
0.4909777805449906,-0.19252697476528544,-1.8611897657411
0.48884942437042644,-0.19864774106143937,-1.8622229347605088
0.48664579103975814,-0.20474568857226336,-1.8632601112732732
0.48436707697280074,-0.2108198873799799,-1.864301150300847
0.4820134900700507,-0.21686940784033054,-1.8653459058175368
0.47958524976154826,-0.22289332072211016,-1.8663942307648567
0.4770825870541903,-0.22889069734858006,-1.8674459770662855
0.47450574457744665,-0.23486060974073317,-1.8685009956424259
0.4718549766274238,-0.2408021307624089,-1.8695591364265736
0.4691305492092203,-0.2467143342672516,-1.8706202483806937
0.4663327400775245,-0.2525962952474846,-1.8716841795118166
0.4634618387753998,-0.25844708998449173,-1.8727507768888432
0.460518146671199,-0.26426579620119717,-1.873819886659779
0.4575019769935588,-0.27005149321621,-1.8748913540693817
0.45441365486442004,-0.275803262099727,-1.8759650234772423
0.4512535173300132,-0.28152018583116617,-1.877040738376285
0.4480219133897652,-0.2872013494585089,-1.8781183414117069
0.4447192040230602,-0.2928458402593341,-1.8791976744003358
0.44134576221381205,-0.29845274790350756,-1.8802785783504348
0.4379019729727892,-0.30402116461750484,-1.8813608934819301
0.4343882333576336,-0.3095501853503461,-1.8824444592470815
0.43080495249052786,-0.31503890794110107,-1.8835291143515869
0.42715255157345394,-0.32048643328793625,-1.8846146967761233
0.4234314639009838,-0.32589186551868193,-1.885701043798329
0.41964213487055957,-0.3312543121628667,-1.8867879920152206
0.415785021990202,-0.33657288432519616,-1.887875377366051
0.41186059488359783,-0.3418466968604349,-1.8889630351556053
0.4078693352925165,-0.3470748685496466,-1.8900508000779315
0.40381173707649626,-0.35225652227776505,-1.8911385062405148
0.399688306209759,-0.35739078521243667,-1.8922259871888805
0.3954995607752995,-0.3624767889840998,-1.8933130759316368
0.39124603095609156,-0.3675136698672596,-1.89439960496595
0.3869282590233749,-0.37250056896289857,-1.8954854063034496
0.3825467993219671,-0.3774366323819818,-1.8965703114965662
0.3781022182525484,-0.3823210114300103,-1.897654151665294
0.3735950942508825,-0.387152862792559,-1.8987367575243772
0.36902601776391974,-0.39193134872175595,-1.8998179594109228
0.3643955912227397,-0.39665563722364217,-1.9008975873124259
0.3597044290122909,-0.40132490224635525,-1.9019754708952137
0.3549531574378767,-0.4059383238690859,-1.9030514395332994
0.3501424146883558,-0.4104950884917357,-1.904125322337644
0.34527285079601044,-0.4149943890252211,-1.9051969481858189
0.34034512759303726,-0.41943542508236586,-1.9062661457520675
0.33535991866463194,-0.4238174031693071,-1.90733274353776
0.33031790929862676,-0.42813953687735395,-1.908396569902233
0.3252197964316348,-0.4324010470752376,-1.9094574530940145
0.32006628859168285,-0.4366011621016719,-1.9105152212824215
0.31485810583728513,-0.440739117958165,-1.9115697025895275
0.30959597969293196,-0.444814158502005,-1.9126207251224927
0.304280653080965,-0.4488255356393477,-1.913668117006252
0.29891288024979845,-0.4527725095183364,-1.9147117064165462
0.2934934266984734,-0.45665434872217164,-1.915751321613299
0.28802306909751235,-0.46047033046205754,-1.9167867909743248
0.28250259520604243,-0.46421974076995104,-1.917817943029358
0.2769328037851792,-0.4679018746910277,-1.9188446064944056
0.2713145045076419,-0.4715160364757857,-1.919866610306396
0.2656485178635751,-0.4750615397717144,-1.920883783658137
0.25993567506257453,-0.478537707814433,-1.9218959560335527
0.2541768179318892,-0.48194387361822466,-1.922902957243203
0.2483727988107905,-0.48527938016587996,-1.9239046174600702
0.24252448044110198,-0.48854358059776026,-1.9249007672556036
0.23663273585386665,-0.4917358384000032,-1.9258912376360098
0.23069844825216068,-0.4948555275917743,-1.926875860078779
0.224722510890042,-0.49790203291148116,-1.927854466569435
0.2187058269476209,-0.5008747500018644,-1.9288268896384984
0.21264930940226864,-0.5037730855938711,-1.9297929623986492
0.2065538808959576,-0.5065964576892226,-1.9307525185820773
0.2004204735987275,-0.5093442957415892,-1.9317053925780117
0.19425002906830102,-0.5120160408362773,-1.9326514194704043
0.18804349810584378,-0.5146111458683379,-1.9335904350757729
0.18180184060788282,-0.5171290757190085,-1.9345222759811713
0.17552602541440132,-0.5195693074303901,-1.935446779582289
0.16921703015311101,-0.5219313303782753,-1.9363637841216514
0.16287584107993705,-0.5242146464430262,-1.9372731287269216
0.15650345291572706,-0.5264187701784151,-1.9381746534492763
0.15010086867919828,-0.5285432289783352,-1.9390681993018481
0.14366909951616483,-0.5305875632412852,-1.9399536082982174
0.13720916452506324,-0.5325513265325388,-1.9408307234909412
0.1307220905787984,-0.5344340857439048,-1.9416993890100966
0.1242089121429593,-0.536235421250986,-1.9425594501018317
0.117670671090426,-0.5379549270678449,-1.9434107531669036
0.11110841651240909,-0.5395922109989847,-1.9442531457991872
0.10452320452596667,-0.5411468947885539,-1.9450864768241418
0.09791609807802676,-0.5426186142666861,-1.9459105963372125
0.09128816674597809,-0.5440070194928812,-1.9467253557421629
0.08464048653486801,-0.5453117748963416,-1.947530607789305
0.07797413967124883,-0.5465325594131741,-1.9483262066136249
0.07129021439374199,-0.5476690666203688,-1.9491120077727777
0.06458980474036673,-0.5487210048664684,-1.9498878682849414
0.05787401033268138,-0.5496880973988425,-1.9506536466665059
0.05114393615681576,-0.5505700824874812,-1.9514092029695844
0.044400692341442394,-0.551366713545225,-1.952154398819332
0.03764539393275581,-0.5520777592443464,-1.9528890974510456
0.030879160666532263,-0.5527030036294043,-1.9536131637470378
0.024103116737324362,-0.5532422462262887,-1.9543264642732594
0.016480813021948194,-0.5269166734423187,-1.9514672868837073
0.010016863762539446,-0.5272566208032409,-1.9521240153245263
0.00354703330381955,-0.5275143795229109,-1.9527701252796563
-0.0029275989284711867,-0.5276898247338465,-1.953405497822499
-0.009405950562691329,-0.5277828466109735,-1.9540300157933113
-0.015886936511540002,-0.5277933504475427,-1.9546435638312696
-0.022369469204355587,-0.5277212567270418,-1.9552460284061917
-0.028852458821391255,-0.5275665011910465,-1.9558372978498832
-0.035334813529985645,-0.5273290349029499,-1.956417262387112
-0.04181543972254497,-0.5270088243075193,-1.9569858141661813
-0.04829324225625118,-0.5266058512862207,-1.9575428472890886
-0.0547671246944097,-0.5261201132082666,-1.9580882578412657
-0.06123598954934632,-0.5255516229773307,-1.9586219439208676
-0.06769873852676711,-0.5249004090738871,-1.9591438056676085
-0.07415427277148465,-0.5241665155931269,-1.959653745291126
-0.08060149311442114,-0.5233500022784081,-1.9601516670988588
-0.08703930032079252,-0.5224509445501996,-1.9606374775234199
-0.09346659533937818,-0.5214694335304809,-1.9611110851494602
-0.09988227955277867,-0.5204055760625576,-1.9615724007399944
-0.10628525502856413,-0.5192594947262658,-1.962021337262195
-0.11267442477121271,-0.5180313278485265,-1.962457809912617
-0.11904869297474012,-0.5167212295092259,-1.9628817361418602
-0.1254069652759165,-0.5153293695423937,-1.9632930356786458
-0.131748149007972,-0.5138559335326549,-1.9636916305532945
-0.1380711534546833,-0.5123011228069337,-1.964077445120598
-0.1443748901047402,-0.5106651544213934,-1.9644504060820676
-0.1506582729062869,-0.5089482611435916,-1.96481044250755
-0.15692021852153112,-0.5071506914298404,-1.9651574858561949
-0.16315964658131749,-0.5052727093977609,-1.9654914699967692
-0.16937547993955657,-0.5033145947940215,-1.9658123312273006
-0.17556664492740393,-0.5012766429572574,-1.9661200082940444
-0.1817320716070817,-0.49915916477616656,-1.9664144424097587
-0.18787069402523526,-0.49696248664278236,-1.9666955772712789
-0.19398145046571655,-0.49468695040092886,-1.9669633590763889
-0.200063283701689,-0.49233291328985873,-1.9672177365399661
-0.20611514124694233,-0.48990074788308763,-1.967458660909403
-0.2121359756063132,-0.48739084202243343,-1.9676860859792928
-0.21812474452510178,-0.4848035987472742,-1.9678999681053662
-0.22408041123737854,-0.48213943621904326,-1.9681002662176785
-0.2300019447130735,-0.4793987876409802,-1.9682869418330409
-0.23588831990374104,-0.47658210117315836,-1.9684599590666731
-0.24173851798689558,-0.4736898398428179,-1.9686192846430965
-0.24755152660881077,-0.4707224814500276,-1.9687648879062358
-0.25332634012567906,-0.46768051846871034,-1.9688967408287432
-0.2590619598430252,-0.4645644579430626,-1.969014818020526
-0.2647573942532738,-0.46137482137940494,-1.9691190967364829
-0.2704116592713646,-0.4581121446335026,-1.9692095568834371
-0.2760237784683161,-0.4547769777933978,-1.9692861810262663
-0.28159278330263665,-0.4513698850577968,-1.9693489543932272
-0.28711771334948366,-0.4478914446100584,-1.9693978648804653
-0.29259761652747224,-0.44434224848783516,-1.9694329030557138
-0.29803154932303655,-0.4407229024484154,-1.9694540621611782
-0.30341857701224856,-0.4370340258298244,-1.9694613381156012
-0.3087577738799998,-0.4332762514077386,-1.969454729515513
-0.31404822343645233,-0.42945022524827287,-1.969434237635658
-0.3192890186306702,-0.42555660655670174,-1.9693998664286065
-0.32447926206133926,-0.421596067522181,-1.9693516225235452
-0.32961806618448847,-0.41756929315853203,-1.9692895152242509
-0.3347045535181274,-0.41347698114116016,-1.9692135565062454
-0.33973785684371377,-0.4093198416401765,-1.9691237610131362
-0.3447171194043707,-0.40509859714979596,-1.9690201460521457
-0.34964149509977094,-0.40081398231408616,-1.9689027315888228
-0.354510148677612,-0.39646674374914487,-1.9687715402409565
-0.359322255921603,-0.39205763986178327,-1.968626597271677
-0.36407700383589203,-0.3875874406647971,-1.9684679305817618
-0.3687735908258582,-0.3830569275889075,-1.9682955707011414
-0.37341122687520234,-0.37846689329145505,-1.9681095507796178
-0.3779891337192658,-0.3738181414619346,-1.9679099065767962
-0.3825065450145119,-0.3691114866244568,-1.967696676451234
-0.3869627065041097,-0.3643477539372268,-1.9674699013488208
-0.3913568761795559,-0.35952777898912935,-1.9672296247903847
-0.39568832443827967,-0.35465240759351374,-1.9669758928585448
-0.39995633423717225,-0.34972249557927043,-1.9667087541838069
-0.40416020124198965,-0.3447389085792954,-1.9664282599299134
-0.4082992339725771,-0.33970252181643656,-1.9661344637784606
-0.41237275394386624,-0.3346142198870219,-1.9658274219127827
-0.41638009580260266,-0.3294748965420617,-1.9655071930011212
-0.42032060745975475,-0.3242854544662322,-1.9651738381790804
-0.4241936502185702,-0.3190468050547323,-1.9648274210313865
-0.42799859889823866,-0.3137598681881175,-1.9644680075729526
-0.43173484195312584,-0.30842557200521414,-1.9640956662292692
-0.4354017815875467,-0.30304485267421366,-1.963710467816123
-0.4389988338660491,-0.29761865416204897,-1.9633124855186568
-0.44252542881918133,-0.2921479280021564,-1.962901794869787
-0.44598101054471656,-0.28663363306072887,-1.9624784737279848
-0.4493650373043143,-0.28107673530156224,-1.9620426022544342
-0.452676981615601,-0.27547820754959806,-1.9615942628895833
-0.45591633033965373,-0.26983902925326664,-1.9611335403290944
-0.4590825847638693,-0.26416018624573995,-1.9606605214992137
-0.46217526068021414,-0.2584426705051918,-1.9601752955315668
-0.4651938884588432,-0.2526874799141718,-1.9596779537373978
-0.46813801311708325,-0.24689561801820006,-1.9591685895812658
-0.47100719438377714,-0.24106809378368468,-1.9586472986542072
-0.47380100675899184,-0.23520592135526322,-1.9581141786463871
-0.47651903956908925,-0.22931011981267352,-1.9575693293192442
-0.4791608970171664,-0.2233817129272607,-1.9570128524771515
-0.4817261982288749,-0.2174217289182122,-1.9564448519386024
-0.4842145772936251,-0.21143120020863646,-1.9558654335069414
-0.4866256833011937,-0.20541116318157085,-1.9552747049406463
-0.4889591803737452,-0.19936265793603514,-1.9546727759231917
-0.4912147476932878,-0.19328672804321634,-1.9540597580324905
-0.49339207952458386,-0.18718442030289084,-1.9534357647099427
-0.4954908852335362,-0.18105678450018134,-1.9528009112291034
-0.4975108893010767,-0.17490487316274422,-1.9521553146639827
-0.49945183133258286,-0.16872974131848123,-1.9514990938569918
-0.5013134660628563,-0.16253244625387142,-1.9508323693865626
-0.503095563356687,-0.15631404727302134,-1.9501552635344366
-0.504797908205048,-0.15007560545751517,-1.9494679002526614
-0.5064203007169454,-0.1438181834271688,-1.9487704051302905
-0.5079625561069728,-0.1375428451017637,-1.9480629053598162
-0.5094245046786025,-0.13125065546386247,-1.947345529703344
-0.5108059918032589,-0.12494268032278114,-1.9466184084585276
-0.5121068778952211,-0.11861998607980932,-1.94588167342428
-0.513327038382395,-0.11228363949476217,-1.9451354578662716
-0.5144663636730087,-0.1059347074539456,-1.944379896482242
-0.5155247591182773,-0.09957425673961215,-1.9436151253671263
-0.5165021449710921,-0.09320335380098904,-1.9428412819780274
-0.5173984563407826,-0.0868230645269593,-1.9420585050990353
-0.5182136431440126,-0.0804344540204608,-1.9412669348059184
-0.5189476700518615,-0.07403858637469049,-1.9404667124307007
-0.5196005164331505,-0.06763652445117098,-1.9396579805261331
-0.5201721762940761,-0.06122932965976397,-1.9388408828300872
-0.520662658214206,-0.054818061740686534,-1.9380155642298718
-0.5210719852789046,-0.04840377854860184,-1.9371821707264962
-0.5214001950082501,-0.04198753583884998,-1.9363408493988967
-0.5216473392825048,-0.03557038705587896,-1.9354917483681295
-0.5218134842642107,-0.02915338312393474,-1.9346350167615598
-0.5218987103169693,-0.022737572240069635,-1.9337708046770448
-0.5219031119209815,-0.01632399966953091,-1.9328992631471429
-0.5218267975854097,-0.009913707543571893,-1.932020544103346
-0.5216698897576364,-0.0035077346597524985,-1.9311348003403574
-0.5214325247294869,0.002892883715235566,-1.9302421854804317
-0.5211148525404888,0.0092871160401563,-1.9293428539377782
-0.5207170368782416,0.015673934691195116,-1.9284369608830554
-0.5202392549759642,0.022052316151253585,-1.9275246622079574
-0.5196816975073009,0.028421241196529855,-1.9266061144899125
-0.5190445684784518,0.03477969508034664,-1.9256814749569031
-0.5183280851177086,0.041126667714190775,-1.924750901452418
-0.5175324777624651,0.04746115384592716,-1.923814552400553
-0.5166579897437817,0.053782153235148365,-1.9228725867712682
-0.5157048772685752,0.06008867082563943,-1.9219251640458124
-0.5146734092995132,0.0663797169149144,-1.920972444182332
-0.5135638674326848,0.07265430732081132,-1.9200145875816654
-0.5123765457731276,0.078911463545106,-1.9190517550533448
-0.5111117508082833,0.08515021293413262,-1.9180841077818056
-0.5097698012794585,0.09136958883638423,-1.9171118072928202
-0.5083510280513686,0.09756863075707238,-1.9161350154201628
-0.5068557739798384,0.10374638450963024,-1.915153894272517
-0.5052843937777345,0.10990190236414503,-1.9141686062006333
-0.5036372538792068,0.11603424319270474,-1.9131793137647455
-0.5019147323023128,0.12214247261164271,-1.9121861797022566
-0.5001172185100992,0.1282256631206806,-1.9111893668957027
-0.49824511327021725,0.13428289423894854,-1.9101890383409996
-0.4962988285131425,0.14031325263789027,-1.909185357115984
-0.49427878718907564,0.1463158322710344,-1.908178486349253
-0.49218542312359664,0.1522897345006412,-1.9071685891893155
-0.4900191808721423,0.1582340682212187,-1.9061558287740517
-0.48778051557338387,0.16414794997990703,-1.9051403682005013
-0.48546989280157193,0.17003050409373666,-1.9041223704949737
-0.4830877884179215,0.17588086276376483,-1.9031019985834947
-0.48063468842110535,0.181698166186096,-1.902079415262592
-0.4781110887969293,0.1874815626597881,-1.901054783170427
-0.4755174953672509,0.19323020869166513,-1.9000282647582758
-0.4728544236382167,0.19894326909803234,-1.899000022262366
-0.4701223986478795,0.20461991710332073,-1.897970217676074
-0.4673219548132654,0.21025933443566028,-1.8969390127224857
-0.4644536357769526,0.21586071141940835,-1.8959065688273287
-0.46151799425322826,0.22142324706464375,-1.8948730470922721
-0.4585155918738872,0.22694614915364397,-1.8938386082686083
-0.45544699903373287,0.2324286343243658,-1.8928034127313076
-0.45231279473584285,0.2378699281509512,-1.8917676204534624
-0.44911356643665934,0.24326926522127887,-1.8907313909811105
-0.44584990989096435,0.24862588921157927,-1.8896948834084484
-0.4425224289967958,0.25393905295814856,-1.8886582563534362
-0.4391317356403654,0.259208018526172,-1.887621667933791
-0.43567844954102863,0.2644320572756973,-1.886585275743377
-0.43216319809636894,0.2696104499247723,-1.8855492368289897
-0.42858661622744293,0.2747424866097847,-1.8845137076675345
-0.42494934622424296,0.27982746694302973,-1.8834788441436061
-0.42125203759143,0.2848647000675318,-1.882444801527464
-0.417495346894381,0.28985350470916027,-1.881411734453407
-0.4136799376056082,0.2947932092260605,-1.8803797968985463
-0.40980647995158903,0.2996831516554438,-1.879349142161979
-0.405875650760063,0.30452267975775876,-1.8783199228443594
-0.40188813330783085,0.3093111510582892,-1.8772922908278673
-0.39784461716911057,0.3140479328862038,-1.8762663972565787
-0.39374579806448295,0.31873240241110096,-1.8752423925172288
