-0.7957286398359359,-1.2402301581472344,-7.17759088262118
-0.8104843966792691,-1.2297591771175596,-7.174016125729923
-0.8251016056909141,-1.2191107648851638,-7.1704287472376
-0.8395781777023006,-1.2082868607315624,-7.166829329776203
-0.8539120529185142,-1.197289427132389,-7.1632184562378125
-0.8681012011329904,-1.1861204492628532,-7.1595967096652755
-0.8821436219329682,-1.1747819345027026,-7.155964673143928
-0.8960373448957675,-1.163275911940878,-7.1523229296944155
-0.9097804297759565,-1.1516044318800387,-7.148672062166594
-0.9233709666834737,-1.1397695653411484,-7.145012653134578
-0.9368070762527805,-1.1277734035682918,-7.141345284792924
-0.9500869098031195,-1.1156180575338994,-7.137670538853979
-0.9632086494899565,-1.1033056574445521,-7.133988996446421
-0.9761705084476922,-1.0908383522475293,-7.1303012380149875
-0.988970730923725,-1.0782183091382755,-7.126607843221449
-1.0016075924039582,-1.0654477130689308,-7.122909390846789
-1.0140793997298423,-1.0525287662580989,-7.119206458694655
-1.0263844912070448,-1.0394636877019954,-7.115499623496066
-1.0385212367058478,-1.0262547126871362,-7.111789460815404
-1.0504880377533752,-1.0129040923047015,-7.108076544957686
-1.0622833276177468,-0.9994140929667316,-7.104361448877145
-1.073905571384272,-0.9857869959242872,-7.100644744087129
-1.0853532660237801,-0.9720250967877102,-7.096927000571299
-1.0966249404532102,-0.9581307050491207,-7.093208786696192
-1.1077191555885602,-0.9441061436072755,-7.089490669125087
-1.118634504390315,-0.9299537482949195,-7.085773212733238
-1.1293696119014713,-0.9156758674087377,-7.082056980524453
-1.1399231352782686,-0.9012748612420437,-7.078342533549028
-1.1502937638137465,-0.8867531016203098,-7.074630430823039
-1.160480218954265,-0.8721129714396337,-7.070921229249005
-1.1704812543090826,-0.8573568642082785,-7.067215483537913
-1.180295655653133,-0.8424871835913671,-7.063513746132612
-1.1899222409231218,-0.8275063429588323,-7.059816567132582
-1.1993598602070688,-0.8124167649367184,-7.056124494220065
-1.2086073957274166,-0.7972208809619336,-7.052438072587583
-1.2176637618178352,-0.7819211308405309,-7.048757844866795
-1.2265279048938564,-0.7665199623096036,-7.045084351058762
-1.2351988034174612,-0.7510198306028723,-7.0414181284655415
-1.166702406851764,-0.6899066817358301,-7.039634664270032
-1.1745090273182592,-0.6752088114328499,-7.036209471934022
-1.182132065689477,-0.6604240502791826,-7.03279238048918
-1.1895706584597807,-0.6455547180261064,-7.029383885043088
-1.1968239718168745,-0.6306031401047002,-7.0259844779904
-1.203891201592671,-0.6155716472415605,-7.022594648954539
-1.2107715732092996,-0.6004625750780347,-7.019214884730586
-1.2174643416203703,-0.5852782637930175,-7.015845669229342
-1.2239687912476078,-0.5700210577293648,-7.012487483422581
-1.2302842359129658,-0.5546933050239652,-7.009140805289462
-1.2364100187663372,-0.5392973572415132,-7.005806109764106
-1.2423455122089722,-0.5238355690120243,-7.002483868684341
-1.2480901178127186,-0.5083102976721294,-6.999174550741575
-1.2536432662351942,-0.4927239029101741,-6.99587862143183
-1.2590044171310066,-0.47707874641516584,-6.992596543007888
-1.264173059059128,-0.46137719152958784,-6.989328774432581
-1.269148709386541,-0.44562160290610703,-6.9860757713331685
-1.2739309141882602,-0.4298143461681994,-6.982837985956844
-1.278519248143846,-0.4139577875747119,-6.979615867127313
-1.2829133144305116,-0.3980542936883768,-6.976409860202463
-1.2871127446129411,-0.382106231048294,-6.973220407033106
-1.2911171985299177,-0.3661159658463929,-6.970047945922775
-1.294926364177874,-0.35008586360788485,-6.96689291158857
-1.298539957591469,-0.3340182888757061,-6.963755735123046
-1.301957722721293,-0.3179156048989656,-6.960636843957116
-1.3051794313088136,-0.3017801733253925,-6.957536661823974
-1.3082048827586517,-0.28561435389778494,-6.9544556087240075
-1.311033904008303,-0.26942050415445845,-6.951394100890707
-1.313666349395397,-0.25320097913368744,-6.948352550757537
-1.3161021005225946,-0.2369581310821339,-6.945331366925776
-1.3183410661202235,-0.2206943091672535,-6.942330954133291
-1.3203831819067495,-0.2044118591936682,-6.939351713224257
-1.3222284104471744,-0.1881131233234906,-6.936394041119779
-1.3238767410094616,-0.17180043980058896,-6.933458330789432
-1.3253281894190743,-0.15547614267876667,-6.9305449712236795
-1.3265827979117266,-0.1391425615538478,-6.927654347407168
-1.3276406349844299,-0.12280202129964038,-6.924786840292892
-1.328501795244927,-0.10645684180775646,-6.921942826777183
-1.3291663992596017,-0.09010933773126492,-6.919122679675552
-1.3296345933999463,-0.07376181823215008,-6.9163267676993305
-1.3299065496876745,-0.05741658673254845,-6.9135554554331184
-1.3299824656385595,-0.04107594066973381,-6.910809103313016
-1.3298625641050814,-0.024742171254819843,-6.908088067605631
-1.3295470931179592,-0.00841756323514677,-6.905392700387822
-1.3290363257266493,0.007895605339678277,-6.9027233495272124
-1.3283305598388828,0.024195063348131506,-6.90008035866339
-1.3274301180593215,0.0404785468235384,-6.897464067189851
-1.326335347527397,0.0567437991773021,-6.894874810236616
-1.3250466197544142,0.07298857141863031,-6.8923129186535235
-1.32356433045998,0.08921062237080157,-6.889778718994199
-1.3218888994078306,0.10540771888401279,-6.887272533500661
-1.3200207702411213,0.12157763604485067,-6.884794680088562
-1.3179604103172418,0.13771815738243107,-6.88234547233304
-1.3157083105422245,0.15382707507125165,-6.879925219455188
-1.3132649852047995,0.1699021901307999,-6.877534226309085
-1.3106309718101636,0.18594131262197272,-6.875172793369422
-1.3078068309135142,0.20194226184034242,-6.872841216719662
-1.304793145953407,0.21790286650632748,-6.870539788040766
-1.3015905230849913,0.2338209649523131,-6.868268794600415
-1.2981995910131738,0.24969440530677176,-6.86602851924277
-1.2946210008257646,0.2655210456754357,-6.863819240378711
-1.2908554258266485,0.28129875431957096,-6.861641231976566
-1.2869035613690363,0.2970254098314067,-6.859494763553308
-1.2827661246888313,0.3126989013067697,-6.857380100166196
-1.2784438547381682,0.3283171285149808,-6.8552975024048655
-1.2739375120191505,0.3438780020660606,-6.8532472263838375
-1.2692478784178403,0.35937944357530816,-6.851229523735439
-1.2643757570385283,0.3748193858252951,-6.849244641603121
-1.25932197203833,0.39019577292533897,-6.847292822635161
-1.2540873684621334,0.4055065604685064,-6.845374304978729
-1.2486728120779402,0.4207497156862023,-6.843489322274319
-1.2430791892126254,0.43592321760040154,-6.841638103650518
-1.2373074065881493,0.45102505717357655,-6.839820873719102
-1.231358391158248,0.46605323745637894,-6.838037852570458
-1.225233089945628,0.48100577373312925,-6.836289255769302
-1.2189324698796944,0.49588069366517384,-6.834575294350693
-1.212457517634829,0.5106760374321584,-6.832896174816333
-1.2058092394692437,0.5253898578712851,-6.831252099131118
-1.198988661064432,0.5400202206145982,-6.829643264719964
-1.191996827365228,0.5545652042243605,-6.828069864464866
-1.1848348024204995,0.5690229003265759,-6.826532086702194
-1.1775036692244842,0.5833914137427124,-6.825030115220205
-1.1700045295587826,0.5976688626196833,-6.82356412925678
-1.1623385038350225,0.6118533785581391,-6.822134303497339
-1.1545067309382036,0.62594310673913,-6.820740808072971
-1.1465103680707291,0.6399362060491878,-6.819383808558718
-1.1383505905971385,0.6538308492038885,-6.818063465972049
-1.1300285918895345,0.6676252228699471,-6.816779936771476
-1.1215455831737249,0.6813175277858974,-6.815533372855337
-1.1129027933760662,0.6949059788814131,-6.814323921560701
-1.1041014689710233,0.7083888053953229,-6.81315172566242
-1.0951428738294349,0.7217642509923714,-6.812016923372291
-1.0860282890674895,0.7350305738787816,-6.8109196483383405
-1.0767590128964086,0.7481860469166658,-6.80986002964421
-1.0673363604728279,0.7612289577373427,-6.808838191808638
-1.0577616637498757,0.7741576088536084,-6.8078542547850365
-1.0480362713289388,0.7869703177710093,-6.806908333961137
-1.0381615483121098,0.7996654170981747,-6.806000540158731
-1.0281388761553032,0.81224125465625,-6.80513097963346
-1.0179696525220285,0.8246961935874836,-6.804299754074669
-1.0076552911378145,0.8370286124630165,-6.803506960605325
-0.9971972216452605,0.8492369053899198,-6.802752691781966
-0.9865968894597101,0.8613194821175277,-6.802037035594716
-0.9758557556255236,0.873274768143111,-6.801360075467304
-0.9649752966729354,0.8851012048169402,-6.800721890257144
-0.953957004475477,0.8967972494467762,-6.800122554255421
-0.9428023861079459,0.9083613754018409,-6.799562137187207
-0.9315129637048978,0.9197920722163024,-6.799040704211589
-0.9200902743196432,0.9310878456923218,-6.798558315921809
-0.9085358697837224,0.9422472180027036,-6.79811502834541
-0.8968513165668353,0.9532687277931845,-6.797710892944396
-0.8850381956372011,0.9641509302844085,-6.797345956615372
-0.8730981023223213,0.9748923973736205,-6.797020261689704
-0.8610326461701178,0.9854917177361179,-6.796733845933658
-0.8488434508104175,0.9959474969264979,-6.796486742548531
-0.8365321538167559,1.0062583574797372,-6.79627898017078
-0.8241004065684671,1.0164229390121358,-6.796110582872133
-0.8115498741130265,1.0264398983221623,-6.7959815701596815
-0.7988822350286204,1.0363079094912324,-6.795891956975964
-0.7860991812869031,1.0460256639844498,-6.795841753699024
-0.7732024181159081,1.0555918707513459,-6.795830966142458
-0.7601936638630837,1.0650052563266428,-6.795859595555439
-0.7470746498584068,1.0742645649310718,-6.795927638622722
-0.7338471202775482,1.0833685585722725,-6.796035087464626
-0.7205128320050473,1.092316017145801,-6.796181929637009
-0.7070735544974559,1.1011057385362721,-6.796368148131207
-0.6935310696464161,1.109736538718657,-6.79659372137397
-0.6798871716416286,1.118207251859764,-6.796858623227367
-0.6661436668336741,1.1265167304199244,-6.797162822988693
-0.6523023735966428,1.134663845254894,-6.7975062853903445
-0.6383651221905343,1.142647485718008,-6.7978889705996925
-0.6243337546233804,1.150466559762587,-6.798310834218944
-0.6102101245130518,1.1581199940446298,-6.798771827284999
-0.5959960969487007,1.1656067340257936,-6.79927189626929
-0.5816935483517996,1.1729257440766883,-6.7998109830776405
-0.5673043663367265,1.1800760075804884,-6.800389025050109
-0.5528304495708531,1.1870565270368807,-6.801005954960842
-0.5382737076340924,1.1938663241663565,-6.801661701017944
-0.5236360608778514,1.2005044400148575,-6.802356186863352
-0.5089194402833519,1.2069699350587832,-6.80308933157273
-0.4941257873192642,1.213261889310366,-6.803861049655386
-0.4792570537986094,1.2193794024234228,-6.804671251054225
-0.4643152017348813,1.2253215937994817,-6.805519841145724
-0.449302203197338,1.2310876026942903,-6.806406720739947
-0.434220040165417,1.2366765883247053,-6.807331786080612
-0.4190707043822216,1.2420877299759634,-6.808294928845202
-0.4038561972070317,1.2473202271093333,-6.809296036145134
-0.3885785294667861,1.2523732994701418,-6.810334990525993
-0.37323972130649136,1.2572461871961733,-6.811411669967837
-0.357841802038499,1.2619381509264374,-6.812525947885579
-0.34238680999061044,1.2664484719102937,-6.813677693129448
-0.3268767923529512,1.2707764521169254,-6.814866769985558
-0.311313805023568,1.2749214143451564,-6.816093038176558
-0.29569991245269783,1.278882702333593,-6.8173563528624115
-0.28003718748565476,1.2826596808710833,-6.818656564641276
-0.26432771120428966,1.286251735907474,-6.819993519550521
-0.24857357276696668,1.289658274664653,-6.82136705906787
-0.23277686924700952,1.2928787257478567,-6.822777020112703
-0.2169397054695656,1.2959125392572257,-6.824223235047492
-0.20106419384683588,1.298759186899585,-6.825705531679423
-0.18515245421162388,1.301418162100428,-6.827223733262168
-0.16920661364915054,1.3038889801160805,-6.828777658497865
-0.1532288063270868,1.3061711781460206,-6.830367121539268
-0.13722117332375236,1.3082643154453222,-6.83199193199212
-0.12118586245443506,1.3101679734372011,-6.833651894917738
-0.10512502809577529,1.3118817558256286,-6.835346810835815
-0.08904083100817385,1.3134052887079817,-6.837076475727472
-0.07293543815617032,1.3147382206876972,-6.838840681038554
-0.05681102252674494,1.3158802229868976,-6.840639213683187
-0.04066976294549851,1.3168309895589456,-6.842471856047609
-0.024513843890658697,1.317590237200899,-6.844338385994291
-0.008345455304872051,1.3181577056658162,-6.846238576866348
0.007833207595268482,1.3185331577748798,-6.848172197492263
0.024019944512004416,1.3187163795292913,-6.850139012190936
0.040212550261544265,1.3187071802218937,-6.852138780777072
0.056408814971596104,1.3185053925484769,-6.8541712585669075
0.07260652428133761,1.3181108727187183,-6.856236196384311
0.0888034595438708,1.317523500566708,-6.858333340567247
0.10499739803120035,1.3167431796610134,-6.860462432974648
0.12118611314177931,1.315769837414226,-6.8626232109936645
0.137367374610659,1.3146034251919367,-6.864815407547353
0.15353894872228416,1.3132439184210936,-6.867038751102785
0.16969859852597244,1.3116913166976705,-6.869292965679604
0.18584408405411293,1.3099456438936044,-6.871577770859036
0.20197316254312148,1.3080069482629315,-6.873892881793391
0.21808358865718913,1.3058753025470629,-6.876238009216023
0.23417311471485416,1.3035508040791428,-6.87861285945183
0.2502394909184347,1.3010335748874169,-6.8810171344282365
0.2662804655863509,1.298323761797555,-6.883450531686736
0.2822937853883668,1.2954215365338502,-6.885912744394961
0.29827719558378474,1.2923270958192388,-6.888403461359334
0.31422844026261465,1.2890406614740588,-6.890922367038278
0.33014526258974897,1.2855624805134864,-6.893469141556035
0.3460254050521675,1.2818928252435722,-6.896043460717081
0.3618666097091931,1.2780319933558024,-6.898644996021177
0.3776666184458245,1.2739803080201173,-6.901273414679041
0.3934231732291636,1.2697381179763008,-6.903928379628696
0.4091340163679571,1.2653057976236708,-6.906609549552466
0.424796890775271,1.260683747108989,-6.909316578894673
0.44040954023431245,1.2558723924125068,-6.912049117880025
0.4559697096674128,1.2508721854320737,-6.9148068125327224
0.47147514540818525,1.245683604065215,-6.917589304696296
0.48692359547686637,1.2403071522891065,-6.920396232054189
0.5023128098588518,1.2347433602383489,-6.923227228151104
0.5176405407864305,1.2289927842804707,-6.926081922415122
0.5329045430237236,1.2230560070890573,-6.928959940180616
0.5481025741548324,1.2169336377144286,-6.931860902711971
0.5632323948751934,1.210626311651773,-6.934784427228133
0.5782917692861405,1.2041346909066473,-6.937730126927976
0.5932784651926719,1.1974594640577503,-6.940697611016544
0.6081902544044157,1.1906013463168819,-6.94368648473214
0.6230249130397851,1.1835610795859932,-6.946696349374311
0.6377802218333177,1.1763394325112322,-6.9497268023327194
0.652453966446181,1.1689372005338938,-6.952777437116928
0.6670439377798347,1.161355205938179,-6.9558478433871045
0.6815479322928318,1.1535942978956646,-6.9589376069856685
0.6959637523207381,1.1456553525063928,-6.962046309969895
0.7102892063991499,1.1375392728364777,-6.9651735306454645
0.724522109589788,1.1292469889521373,-6.968318843601017
0.7386602838096373,1.1207794579500474,-6.971481819743675
0.7527015581631071,1.1121376639839262,-6.974662026335587
0.7666437692771809,1.1033226182872455,-6.977859027031478
0.7804847616395172,1.0943353591919716,-6.981072381917237
0.794222387939472,1.0851769521432373,-6.984301647549537
0.8078545094119984,1.0758484897098486,-6.987546376996523
0.8213789961843837,1.066351091590519,-6.990806119879548
0.8347937276257786,1.0566859046157415,-6.994080422415996
0.8480965926994753,1.0468541027451932,-6.997368827463189
0.8612854903178772,1.0368568870605754,-7.000670874563392
0.8743583297001171,1.026695485753788,-7.003986099989922
0.887313030732259,1.0163711541103435,-7.007314036794381
0.9001475243300344,1.0058851744879187,-7.0106542148550055
0.9128597528040436,0.995238856289946,-7.0140061609261615
0.9254476702273672,0.9844335359341483,-7.017369398688977
0.9379092428055116,0.9734705768159204,-7.020743448803135
0.9502424492486278,0.9623513692664567,-7.024127828959804
0.9624452811459262,0.9510773305055332,-7.027522053935771
0.974515743342212,0.9396499045888478,-7.030925635648714
0.9864518543164666,0.9280705623498213,-7.0343380832136715
0.9982516465623898,0.9163408013357697,-7.037758903000696
1.009913166970823,0.9044621457383523,-7.041187598693694
1.0214344772139616,0.8924361463182039,-7.044623671350463
1.032813654131274,0.8802643803236636,-7.048066619463932
1.044048790117025,0.8679484514035058,-7.051515939024591
1.0551379935093186,0.8554899895135919,-7.0549711235841475
1.066079388980553,0.842890650817348,-7.058431664320371
1.076871117929191,0.8301521175799921,-7.061897050103157
1.0875113388727413,0.8172760980564185,-7.065366767561805
1.0979982278418419,0.8042643263726668,-7.068840301153501
1.1083299787753373,0.791118562400883,-7.072317133233014
1.1185048039162355,0.7778405916277085,-7.0757967441236
1.1285209342084308,0.7644322250160059,-7.079278612189128
1.1383766196940708,0.7508952988598593,-7.0827622139073965
1.1480701299114517,0.7372316746327677,-7.086247023944662
1.1575997542933125,0.7234432388289646,-7.089732515231372
1.1669638025654054,0.7095319027977968,-7.093218159039089
1.1761606051452091,0.6954996025710914,-7.096703425058608
1.1851885135406595,0.6813482986834548,-7.100187781479259
1.1940459007487552,0.6670799759854347,-7.103670695069397
1.202731161653909,0.6526966434494921,-7.107151631258049
1.2112427134258965,0.6382003339687272,-7.110630054217747
1.2195789959172694,0.6235931041483013,-7.114105426948495
1.2277384720600824,0.6088770340895105,-7.1175772113628994
1.2357196282617873,0.5940542271664601,-7.121044868372428
1.2435209748001492,0.5791268097952961,-7.124507857974796
1.2511410462170287,0.5640969311959555,-7.1279656393424675
1.2585784017108785,0.5489667631463906,-7.131417670912261
1.2658316255277995,0.5337384997292401,-7.134863410476028
1.2728993273509963,0.5184143570709117,-7.138302315272426
1.2797801426884727,0.5029965730730469,-7.141733842079736
1.2864727332588082,0.48748740713634875,-7.145157447309726
1.2929757873748478,0.4718891398767446,-7.148572587102542
1.2992880203251413,0.456204072833872,-7.1519787174226055
1.3054081747529673,0.4404345281718731,-7.155375294155501
1.3113350210327686,0.424582848372486,-7.158761773205843
1.3170673576438319,0.40865139592042826,-7.162137610596072
1.3226040115410405,0.3926425529810731,-7.165502262566211
1.3279438385225248,0.3765587210704137,-7.168855185674498
1.3330857235940379,0.36040232071733097,-7.172195836898935
1.3380285813298787,0.34417579111816704,-7.175523673739674
1.3427713562301913,0.32788158978362525,-7.178838154322256
1.3473130230744559,0.3115221921780085,-7.18213873750166
1.3516525872709992,0.295100091350827,-7.185424882967133
1.3557890852023422,0.27861779756079746,-7.188696051347794
1.3597215845662067,0.26207783789226674,-7.191951704318953
1.3634491847119987,0.24548275586409796,-7.195191304709151
1.366971016972593,0.22883511103105755,-7.1984143166078685
1.370286244991231,0.2121374785777524,-7.201620205473873
1.3733940650433583,0.19539244890516108,-7.204808438244202
1.376293706353216,0.17860262720982115,-7.207978483443703
1.3789844314050046,0.16177063305572587,-7.211129811295141
1.3814655362484465,0.14489909993899966,-7.214261893829829
1.3837363507985563,0.12799067484541404,-7.217374204998724
1.3857962391294483,0.11104801780082585,-7.2204662207839885
1.3876445997619982,0.09407380141461005,-7.223537419310961
1.3892808659451799,0.07707071041617258,-7.226587280960509
1.3907045059308984,0.06004144118463066,-7.2296152884817175
1.3919150232421493,0.04298870127175298,-7.232620927104882
1.39291195693432,0.025915208918259165,-7.235603684654783
1.3936948818494646,0.008823692563575916,-7.23856305166417
1.3942634088633759,-0.008283109650837095,-7.241498521487441
1.3946171851252895,-0.02540245038448244,-7.2444095904144765
1.3947558942900404,-0.04253157360702758,-7.247295757784578
1.3946792567425144,-0.05966771511358763,-7.250156526100467
1.3943870298142207,-0.07680810304596664,-7.2529914011423235
1.3938790079918282,-0.093949958419725,-7.2557998920818
1.3931550231174992,-0.11109049565693749,-7.258581511595976
1.3922149445808647,-0.12822692312450193,-7.261335775981212
1.3910586795024817,-0.14535644367785414,-7.264062205266862
1.3896861729086218,-0.16247625520993764,-7.26676032332879
1.3880974078972403,-0.17958355120527958,-7.269429658002661
1.386292405794971,-0.19667552129900784,-7.272069741196937
1.3842712263050128,-0.21374935184065025,-7.274680109005578
1.3820339676457538,-0.230802226462551,-7.277260301820336
1.3795807666800073,-0.24783132665272756,-7.279809864442668
1.3769117990347135,-0.26483383233199687,-7.28232834619517
1.374027279210982,-0.2818069224351894,-7.284815301032507
1.3709274606843447,-0.29874777549626763,-7.287270287651787
1.3676126359950993,-0.31565357023716173,-7.289692869602341
1.3640831368286175,-0.33252148616013,-7.292082615394845
1.3603393340855074,-0.3493487041434486,-7.2944390986097645
1.3563816379415172,-0.3661324070402347,-7.296761898005034
1.3522104978970726,-0.3828697802801934,-7.299050597622968
1.347826402816348,-0.3995580124740923,-7.301304786896332
1.343229880955767,-0.41619429602074287,-7.303524060753513
1.3384214999818518,-0.43277582771628675,-7.30570801972279
1.333401866978318,-0.44929980936556185,-7.307856270035603
1.328171628442343,-0.4657634483953363,-7.309968423728803
1.322731470269927,-0.48216395846918436,-7.312044098745846
1.3170821177302676,-0.498498560103781,-7.314082919036845
1.3112243354290916,-0.5147644812863872,-7.3160845146574776
1.3051589272608695,-0.5309589580932985,-7.3180485218666735
1.2988867363498653,-0.5470792353090222,-7.319974583223053
1.2924086449799637,-0.5631225670459483,-7.321862347680056
1.285725574513233,-0.5790862173642818,-7.3237114706797275
1.2788384852971817,-0.5949674608919948,-7.325521614245116
1.2717483765606732,-0.6107635834445573,-7.327292447071229
1.2644562862984738,-0.6264718826442088,-7.329023644614509
1.2569632911444084,-0.6420896685385254,-7.330714889180787
1.2492705062331058,-0.6576142642180379,-7.33236587001168
1.2413790850503288,-0.6730430064326519,-7.333976283369351
1.2332902192718758,-0.6883732462066376,-7.335545832619651
1.2250051385910663,-0.7036023494519161,-7.33707422831355
1.216525110534805,-0.7187276975794259,-7.338561188266834
1.207851440268251,-0.7337466881082887,-7.340006437638037
1.1989854703881022,-0.7486567352725576,-7.341409709004564
1.1899285807045274,-0.7634552706252713,-7.342770742436947
1.1806821880117748,-0.7781397436395833,-7.344089285571229
1.171247745847499,-0.7927076223067119,-7.34536509367942
1.1616267442408457,-0.8071563937304593,-7.3465979297379835
1.151820709449355,-0.8214835647180605,-7.347787564494338
1.1418312036847333,-0.8356866623671053,-7.348933776531323
1.1316598248275522,-0.8497632346483014,-7.350036352329599
1.1213082061309665,-0.8637108509838126,-7.351095086327956
1.110778015913497,-0.8775271028209579,-7.352109780981497
1.1000709572409901,-0.8912096042009972,-7.353080246817649
1.0891887675978196,-0.9047559923227925,-7.354006302490016
1.0781332185474397,-0.9181639281010858,-7.354887774829981
1.0669061153823856,-0.9314310967191697,-7.355724498896096
1.055509296763827,-0.9445552081757077,-7.35651631802119
1.0439446343507917,-0.957533997825481,-7.35726308385718
1.0322140324191715,-0.9703652269138248,-7.357964656417579
1.020319427470646,-0.9830466831045316,-7.35862090411765
1.0082627878316381,-0.9955761810010035,-7.359231703812215
0.9960461132424606,-1.007951562660413,-7.359796940831062
0.9836714344367693,-1.0201706981006866,-7.3603165090119775
0.9711408127114952,-1.0322314858000619,-7.3607903107313355
0.9584563394873883,-1.0441318531890391,-7.36121825693228
0.9456201358603455,-1.0558697571344982,-7.361600267150435
0.9326343521436786,-1.0674431844157906,-7.361936269537164
0.9195011674014942,-1.0788501521925997,-7.362226200880356
0.9062227889733572,-1.090088708464383,-7.362470006622714
0.8928014519904193,-1.1011569325211967,-7.362667640877563
0.8792394188831966,-1.1120529353857225,-7.362819066442139
0.8655389788811733,-1.122774860246317,-7.362924254808375
0.8517024475044493,-1.1333208828808954,-7.362983186171165
0.8377321660475964,-1.1436892120714972,-7.362995849434112
0.8236305010559559,-1.1538780900093426,-7.362962242212742
0.8093998437945567,-1.1638857926902422,-7.362882370835197
0.7950426097098849,-1.1737106303001834,-7.362756250340401
0.7805612378847041,-1.183350947590956,-7.362583904473693
0.7659581904861497,-1.1928051242456605,-7.362365365679951
0.7512359522073201,-1.2020715752339666,-7.362100675094174
0.7363970297025783,-1.211148751156985,-7.361789882529572
0.7214439510168097,-1.2200351385816168,-7.3614330464631275
0.7063792650088441,-1.2287292603642708,-7.3610302340186715
0.6912055407692992,-1.2372296759638133,-7.360581520947455
0.6759253670330545,-1.2455349817436585,-7.3600869916062495
0.6605413515866265,-1.2536438112628745,-7.359546738932969
0.6450561206706537,-1.2615548355562223,-7.358960864419847
0.6294723183777574,-1.2692667634030237,-7.3583294780841575
0.6137926060460167,-1.2767783415847735,-7.357652698436519
0.5980196616482988,-1.2840883551314197,-7.356930652446788
0.5821561791777067,-1.2911956275562266,-7.356163475507557
0.5662048680293745,-1.2980990210791685,-7.355351311395283
0.5501684523788913,-1.3047974368387742,-7.354494312229068
0.5340496705575695,-1.3112898150923817,-7.353592638427105
0.5178512744248495,-1.3175751354047425,-7.352646458660821
0.5015760287380618,-1.3236524168249424,-7.351655949806739
0.4852267105198261,-1.3295207180515958,-7.350621296896074
0.468806108423329,-1.3351791375862863,-7.349542693062118
0.45231702209574065,-1.3406268138752293,-7.348420339485403
0.43576226154002645,-1.345862925439141,-7.347254445336703
0.41914464647540767,-1.350886690991301,-7.346045227717881
0.40246700569673,-1.3556973695438062,-7.3447929116006385
0.38573217643298346,-1.3602942605020183,-7.343497729763168
0.3689430037052508,-1.3646767037472083,-7.3421599227247665
0.35210233968430515,-1.3688440797074235,-7.340779738678427
0.3352130430481457,-1.3727958094165833,-7.339357433421463
0.3182779783396869,-1.3765313545618456,-7.337893270284165
0.301300015324879,-1.3800502175192666,-7.336387520056578
0.28428202835149186,-1.3833519413777975,-7.334840460913379
0.26722689570881436,-1.3864361099516649,-7.333252378336946
0.2501374989885129,-1.389302347781183,-7.331623565038614
0.23301672244689056,-1.3919503201220556,-7.329954320878188
0.21586745236879185,-1.3943797329232335,-7.328244952781734
0.19869257643337798,-1.3965903327933957,-7.3264957746577055
0.18149498308203293,-1.3985819069561207,-7.324707107311423
0.16427756088859885,-1.400354283193844,-7.322879278357978
0.14704319793220905,-1.4019073297806708,-7.321012622133586
0.12979478117291027,-1.4032409554041436,-7.319107479605427
0.1125351958303243,-1.404355109076062,-7.317164198280037
0.09526732476555658,-1.4052497800324477,-7.315183132110276
0.07799404786657334,-1.4059249976227706,-7.313164641400926
0.06071824143726079,-1.406380831188539,-7.311109092712969
0.043442777590377187,-1.406617389931377,-7.309016858766565
0.026170523644604402,-1.4066348227707042,-7.30688831834283
0.008904341525901291,-1.406433318191144,-7.304723856184378
-0.008352912826637806,-1.4060131040797943,-7.302523862894762
-0.025598390050234194,-1.4053744475534904,-7.300288734836795
-0.04282924794298176,-1.404517654776196,-7.298018874029828
-0.060042652043332465,-1.4034430707666732,-7.295714688046025
-0.0772357762043241,-1.40215107919657,-7.29337658990568
-0.0944058031623729,-1.4006421021790745,-7.291004997971629
-0.11154992510045755,-1.3989166000482993,-7.288600335842799
-0.12866534420552497,-1.3969750711295386,-7.286163032246938
-0.14574927321995457,-1.3948180515005708,-7.2836935209325855
-0.16279893598692047,-1.392446114744164,-7.2811922405603156
-0.17981156798949424,-1.3898598716919524,-7.2786596345933114
-0.1967844168833466,-1.387059970159852,-7.2760961511873115
-0.21371474302289045,-1.3840470946751917,-7.2735022430799745
-0.23059981998073475,-1.3808219661957286,-7.270878367479719
-0.2474369350603091,-1.3773853418207314,-7.268224985954066
-0.26422338980153015,-1.3737380144943063,-7.265542564317546
-0.28095650047938453,-1.3698808127011521,-7.26283157251922
-0.2976335985953068,-1.3658146001549234,-7.260092484529833
-0.3142520313612385,-1.3615402754793902,-7.257325778228684
-0.33080916217625816,-1.3570587718825835,-7.254531935290222
-0.34730237109567663,-1.3523710568241134,-7.2517114410704435
-0.3637290552924959,-1.3474781316758475,-7.2488647844931
-0.38008662951114464,-1.342381031376148,-7.245992457935806
-0.3963725265133895,-1.3370808240778558,-7.243094957116038
-0.41258419751634623,-1.3315786107902154,-7.240172780977115
-0.4287191126225085,-1.3258755250149392,-7.23722643157417
-0.44477476124172055,-1.3199727323765997,-7.234256413960168
-0.46074865250502395,-1.3138714302475536,-7.2312632360720155
-0.4766383156703164,-1.3075728473675887,-7.228247408616793
-0.4924413005197613,-1.3010782434584918,-7.225209444958153
-0.508155177748897,-1.2943889088337341,-7.2221498610029276
-0.5237775393473948,-1.2875061640034726,-7.219069175087983
-0.5393059989714204,-1.2804313592750605,-7.21596790786735
-0.5547381923075685,-1.2731658743492682,-7.212846582199691
-0.5700717774283236,-1.2657111179124054,-7.209705723036108
-0.5853044351390281,-1.258068527224542,-7.2065458573083605
-0.6004338693163291,-1.2502395677040261,-7.203367513817509
-0.6154578072380859,-1.2422257325084853,-7.2001712231230135
-0.6303739999047215,-1.234028542112514,-7.196957517432357
-0.645180222352011,-1.2256495438822288,-7.193726930491174
-0.6598742739552975,-1.2170903116468919,-7.190479997473962
-0.6744539787251381,-1.2083524452677863,-7.187217254875388
-0.6889171855943786,-1.1994375702045352,-7.1839392404022195
-0.7032617686966743,-1.1903473370790474,-7.180646492865922
-0.7174856276364544,-1.181083421237281,-7.177339552075934
-0.7315866877503603,-1.1716475223090035,-7.174018958733677
-0.7455629003601686,-1.1620413637657327,-7.170685254327286
-0.7594122430172302,-1.1522666924770384,-7.167338981027145
-0.7731327197384485,-1.142325278265382,-7.163980681582189
-0.7867223612338339,-1.1322189134596732,-7.160610899217058
-0.8001792251256653,-1.1219494124477123,-7.157230177530075
-0.813501396159307,-1.1115186112276954,-7.153839060392122
-0.8266869864057157,-1.10092836695895,-7.15043809184639
-0.8397341354556891,-1.0901805575120689,-7.1470278160090635
-0.8526410106059121,-1.0792770810186019,-7.143608776970939
-0.8654058070368431,-1.0682198554204791,-7.140181518699995
-0.8780267479825076,-1.0570108180193118,-7.136746584944958
-0.890502084892257,-1.0456519250257388,-7.13330451913985
-0.902830097584555,-1.0341451511089683,-7.12985586430957
-0.9150090943928603,-1.0224924889466644,-7.126401162976493
-0.9270374123036729,-1.0106959487753329,-7.122940957068127
-0.9389134170868226,-0.998757557941348,-7.119475787825838
-0.950635503418065,-0.9866793604527632,-7.116006195714646
-0.9622020949940748,-0.9744634165320499,-7.1125327203341255
-0.9736116446399036,-0.9621118021698981,-7.109055900330402
-0.9848626344090019,-0.9496266086802112,-7.105576273309281
-0.9959535756758726,-0.9370099422564317,-7.102094375750491
-1.0068830092214573,-0.9242639235293231,-7.098610742923089
-1.0176495053113366,-0.9113906871263282,-7.0951259088019905
-1.0282516637668426,-0.8983923812326351,-7.091640405985688
-1.038688114029172,-0.8852711671540606,-7.088154765615115
-1.048957515216595,-0.872029218881873,-7.084669517293698
-1.05905855617487,-0.8586687226596573,-7.081185189008592
-1.0689899555209388,-0.8451918765523452,-7.077702307053097
-1.0787504616800236,-0.8316008900175094,-7.074221395950277
-1.0883388529162257,-0.817897983479009,-7.070742978377767
-1.0977539373567176,-0.8040853879031178,-7.067267575093799
-1.1069945530096403,-0.7901653443772045,-7.063795704864416
-1.1160595677758145,-0.7761401036910678,-7.060327884391909
-1.1249478794543728,-0.762011925921011,-7.056864628244451
-1.1336584157424086,-0.7477830800167518,-7.053406448786955
-1.1421901342287653,-0.733455843391243,-7.049953856113129
-1.1505420223820717,-0.7190325015134827,-7.046507357978762
-1.1587130975331288,-0.7045153475043904,-7.043067459736198
-1.0900515218252462,-0.64458067792355,-7.0415017691751896
-1.0973803362697951,-0.6308686057818862,-7.038300656581747
-1.1045380038338029,-0.6170744228596361,-7.0351069109677224
-1.1115236945300722,-0.6032002891957318,-7.031920996553309
-1.118336605992106,-0.5892483707207706,-7.028743375137028
-1.1249759634426706,-0.5752208388992534,-7.025574506039684
-1.1314410196577918,-0.5611198703747504,-7.022414846049381
-1.137731054926284,-0.5469476466180488,-7.01926484936758
-1.1438453770049086,-0.5327063535783241,-7.016124967556202
-1.1497833210692576,-0.5183981813373864,-7.012995649485781
-1.1555442496604658,-0.5040253237670411,-7.009877341284648
-1.1611275526278424,-0.48958997818960553,-7.006770486289152
-1.1665326470675226,-0.47509434504161807,-7.003675524994893
-1.1717589772572417,-0.4605406275407741,-7.000592895009001
-1.1768060145873185,-0.4459310313561238,-6.997523031003395
-1.1816732574879536,-0.4312677642815607,-6.994466364669077
-1.186360231352938,-0.41655303591262705,-6.991423324671411
-1.1908664884598614,-0.4017890573266628,-6.988394336606393
-1.1951916078869278,-0.3869780407663209,-6.985379822957907
-1.1993351954264622,-0.3721221993264689,-6.9823802030559605
-1.2032968834952107,-0.35722374664449436,-6.979395893035876
-1.2070763310415251,-0.3422848965940313,-6.976427305798446
-1.2106732234495265,-0.3273078629821222,-6.973474850971041
-1.2140872724403395,-0.3122948592498204,-6.970538934869642
-1.217318215970492,-0.29724809817625214,-6.967619960461816
-1.220365818127567,-0.2821697915861376,-6.9647183273305995
-1.2232298690232042,-0.26706215006077877,-6.9618344316393035
-1.2259101846835325,-0.2519273826525167,-6.958968666097191
-1.2284066069371316,-0.2367676966026593,-6.956121419926076
-1.2307190033005986,-0.2215852970628777,-6.953293078827764
-1.232847266861822,-0.2063823868200692,-6.950484024952383
-1.234791316161033,-0.19116116602468144,-6.947694636867553
-1.236551095069731,-0.1759238319224898,-6.944925289528401
-1.23812657266756,-0.16067257858982395,-6.94217635424841
-1.2395177431172233,-0.1454095966722238,-6.9394481986710765
-1.240724625537512,-0.13013707312652464,-6.936741186742382
-1.241747263874536,-0.11485719096634855,-6.9340556786840555
-1.242585726771228,-0.09957212901099077,-6.931392030967615
-1.2432401074352053,-0.08428406163768266,-6.928750596289178
-1.243710523505061,-0.06899515853721337,-6.926131723545033
-1.2439971169151642,-0.053707584472889466,-6.923535757807948
-1.2441000537590403,-0.03842349904281128,-6.920963040304214
-1.2440195241514047,-0.02314505644544291,-6.9184139083914005
-1.2437557420889245,-0.007874405248450692,-6.9158886955368235
-1.2433089453097728,0.007386311839212031,-6.913387731296705
-1.2426793951520487,0.02263495819200941,-6.910911341295996
-1.2418673764111308,0.037869403489334014,-6.908459847208894
-1.2408731971960247,0.05308752393386211,-6.906033566739979
-1.2396971887847765,0.06828720246678056,-6.9036328136060225
-1.2383397054790102,0.08346632897991803,-6.9012578975183985
-1.2368011244576498,0.09862280052481287,-6.898909124166115
-1.2350818456298953,0.11375452151875247,-6.896586795199454
-1.2331822914874966,0.12885940394781847,-6.894291208214185
-1.2311029069563975,0.14393536756697434,-6.892022656736366
-1.228844159247796,0.15898034009722944,-6.889781430207692
-1.2264065377086777,0.17399225741992497,-6.887567813971402
-1.2237905536718767,0.18896906376816963,-6.8853820892587185
-1.220996740305714,0.20390871191547305,-6.883224533175802
-1.2180256524632642,0.21880916336161302,-6.881095418691228
-1.2148778665312956,0.23366838851577879,-6.878995014623944
-1.211553980278935,0.24848436687703152,-6.876923585631724
-1.2080546127061011,0.26325508721212415,-6.8748813922000895
-1.2043804038917472,0.27797854773072395,-6.872868690631684
-1.2005320148419578,0.2926527562580802,-6.870885733036097
-1.196510127337944,0.3072757304051826,-6.8689327673201275
-1.1923154437839676,0.3218454977364507,-6.867010037178456
-1.1879486870552387,0.3363600959350076,-6.865117782084735
-1.1834106003458222,0.3508175729655725,-6.8632562372830765
-1.1787019470165847,0.3652159872350258,-6.861425633779918
-1.1738235104432186,0.37955340775068963,-6.859626198336267
-1.1687760938643714,0.3938279142763696,-6.85785815346031
-1.1635605202299146,0.4080375974862068,-6.856121717400357
-1.1581776320493773,0.422180559116384,-6.8544171041381485
-1.1526282912405728,0.436254912114735,-6.8527445233824675
-1.146913378978444,0.45025878078830345,-6.8511041805630795
-1.1410337955441539,0.4641903009488999,-6.849496276824975
-1.134990460174439,0.4780476200567002,-6.84792100902291
-1.1287843109112514,0.491828897361941,-6.846378569716221
-1.1224163044517081,0.5055323040447512,-6.844869147163932
-1.1158874159983654,0.5191560233531706,-6.843392925320102
-1.1091986391098347,0.5326982507394054,-6.841950083829443
-1.1023509855517584,0.5461571939943645,-6.840540798023174
-1.095345485148156,0.5595310733805265,-6.839165238915117
-1.0881831856331554,0.5728181217631824,-6.837823573198001
-1.080865152503122,0.5860165847401035,-6.83651596324
-1.0733924688691903,0.5991247207696817,-6.835242567081462
-1.0657662353102153,0.612140801297583,-6.834003538431844
-1.0579875697261412,0.6250631108819735,-6.832799026666834
-1.050057607191802,0.6378899473173495,-6.831629176825649
-1.0419774998111513,0.6506196217570275,-6.830494129608509
-1.0337484165719308,0.6632504588343369,-6.829394021374267
-1.0253715432007744,0.675780796782561,-6.82832898413821
-1.0168480820187524,0.6882089875536705,-6.827299145569986
-1.0081792517973531,0.700533396935896,-6.826304628991695
-0.999366287614901,0.7127524046701822,-6.825345553376094
-0.9904104407134054,0.7248644045655682,-6.8244220333449395
-0.9813129783558432,0.7368678046135382,-6.823534179167447
-0.9720751836838587,0.7487610271013833,-6.822682096758862
-0.9626983555758846,0.7605425087246196,-6.82186588767914
-0.9531838085056684,0.7722107006985013,-6.821085649131726
-0.9435328724012016,0.7837640688686746,-6.820341473962434
-0.9337468925040345,0.7952010938210071,-6.819633450658398
-0.9238272292289718,0.8065202709906406,-6.818961663347145
-0.9137752580241313,0.8177201107702966,-6.818326191795694
-0.9035923692313581,0.8287991386178869,-6.817727111409781
-0.8932799679469723,0.839755895163452,-6.817164493233119
-0.8828394738828402,0.8505889363154803,-6.81663840394674
-0.8722723212277489,0.8612968333666328,-6.816148905868388
-0.8615799585090711,0.8718781730989159,-6.815696056951982
-0.8507638484546926,0.8823315578883378,-6.815279910787115
-0.8398254678551945,0.8926556058090777,-6.814900516598624
-0.8287663074262581,0.9028489507372102,-6.814557919246189
-0.8175878716712776,0.9129102424540114,-6.814252159223986
-0.8062916787441551,0.9228381467488801,-6.81398327266038
-0.7948792603122573,0.9326313455219075,-6.813751291317658
-0.7833521614195043,0.9422885368861279,-6.813556242591794
-0.7717119403495698,0.9518084352694712,-6.81339814951226
-0.7599601684891647,0.9611897715164598,-6.8132770307418555
-0.7480984301913756,0.9704312929896645,-6.813192900576588
-0.7361283226390336,0.9795317636709554,-6.813145768945565
-0.7240514557080804,0.9884899642625715,-6.813135641410934
-0.7118694518309087,0.9973046922880311,-6.813162519167845
-0.6995839458596356,1.0059747621929123,-6.8132263990444315
-0.6871965849292917,1.0144990054455247,-6.813327273501848
-0.6747090283208835,1.0228762706374928,-6.813465130634311
-0.6621229473243002,1.0311054235842732,-6.8136399541691794
-0.6494400251010347,1.0391853474256303,-6.8138517234670735
-0.636661956546679,1.047114942726083,-6.814100413522014
-0.6237904481531648,1.0548931275753441,-6.814385994961597
-0.6108272178707113,1.0625188376887693,-6.814708434047214
-0.5977739949694469,1.0699910265078323,-6.815067692674289
-0.5846325199006649,1.0773086653006383,-6.81546372837257
-0.5714045441576808,1.084470743262493,-6.815896494306455
-0.5580918301362503,1.0914762676165388,-6.81636593927536
-0.5446961509945124,1.098324263714468,-6.816872007714132
-0.5312192905124181,1.1050137751373248,-6.817414639693514
-0.5176630429506066,1.1115438637964066,-6.817993770920658
-0.5040292129086905,1.1179136100342715,-6.818609332739701
-0.4903196151829061,1.1241221127258558,-6.819261252132383
-0.4765360746230964,1.1301684893797153,-6.819949451718748
-0.46268042598897924,1.1360518762393859,-6.820673849757903
-0.4487545138056636,1.1417714283848721,-6.821434360148843
-0.43476019221837303,1.1473263198342651,-6.8222308924313655
-0.42069932484633127,1.15271574364549,-6.823063351787051
-0.4065737846357747,1.15793891201818,-6.823931639040348
-0.39238545371204353,1.1629950563956835,-6.824835650659732
-0.3781362232307137,1.1678834275671905,-6.82577527875897
-0.36382799322772547,1.172603295769983,-6.826750411098502
-0.34946267246846735,1.1771539507917972,-6.8277609310869
-0.3350421782957704,1.1815347020732987,-6.828806717782477
-0.32056843647677397,1.1857448788106528,-6.8298876458949955
-0.3060433810486175,1.1897838300581915,-6.83100358578752
-0.29146895416291546,1.1936509248311546,-6.832154403478395
-0.27684710592897477,1.1973455522085037,-6.8333399606433725
-0.26217979425570836,1.2008671214357909,-6.834560114617898
-0.2474689846922059,1.2042150620280645,-6.835814718399536
-0.23271665026691635,1.2073888238728039,-6.837103620650587
-0.21792477132539992,1.2103878773328582,-6.838426665700855
-0.2030953353666093,1.2132117133493752,-6.839783693550621
-0.18823033687765223,1.2158598435446974,-6.841174539873797
-0.17333177716700016,1.2183318003252073,-6.842599036021279
-0.15840166419609522,1.2206271369840946,-6.8440570090245165
-0.14344201240931737,1.222745427804027,-6.8455482815993
-0.12845484256226675,1.2246862681596917,-6.847072672149774
-0.11344218154832494,1.2264492746201896,-6.848629994772691
-0.09840606222344706,1.2280340850512446,-6.8502200592619085
-0.08334852322915154,1.2294403587172094,-6.851842671113157
-0.06827160881366245,1.2306677763828238,-6.853497631529057
-0.053177368651166096,1.2317160404147052,-6.855184737424433
-0.038067857659143854,1.2325848748825312,-6.8569037814319
-0.022945135813738447,1.2332740256598789,-6.858654551907761
-0.007811267963120721,1.2337832605246892,-6.860436832938216
0.007331676361185096,1.2341123692593121,-6.862250404345881
0.02248162313505327,1.2342611637501002,-6.864095041696644
0.037636494034620945,1.2342294780865046,-6.8659705163068825
0.05279420663130494,1.2340171686596328,-6.867876595250999
0.06795267458900091,1.2336241142602309,-6.869813041369363
0.08310980786350333,1.2330502161760324,-6.871779613276601
0.09826351290417808,1.2322953982884455,-6.873776065370305
0.11341169285792226,1.2313596071685142,-6.875802147840111
0.12855224777544141,1.2302428121721174,-6.877857606677221
0.1436830748198764,1.2289450055343492,-6.879942183684337
0.1588020684778114,1.227466202463032,-6.882055616486033
0.1739071207726902,1.2258064412313094,-6.8841976385395895
0.18899612148067055,1.2239657832692645,-6.886367979146283
0.2040669583489452,1.2219443132545083,-6.888566363463147
0.21911751731655274,1.2197421392016852,-6.890792512515241
0.2341456827377078,1.2173593925508313,-6.893046143208403
0.249149337607671,1.2147962282545346,-6.895326968342525
0.2641263637911839,1.2120528248638316,-6.897634696625356
0.27907464225349127,1.20912938461278,-6.899969032686847
0.2939920532939688,1.206026133501647,-6.902329677094045
0.30887647678237806,1.202743321378647,-6.904716326366558
0.32372579239776667,1.1992812220201687,-6.907128672992602
0.33853787987002826,1.1956401332094162,-6.909566405445632
0.3533106192241404,1.1918203768134097,-6.912029208201588
0.36804189102709267,1.1878222988582674,-6.914516761756761
0.38272957663751744,1.1836462696027037,-6.91702874264628
0.39737155845803573,1.1792926836096744,-6.919564823463258
0.4119657201903264,1.1747619598160957,-6.92212467287859
0.4265099470929265,1.1700545416005645,-6.924707955661422
0.4410021262417706,1.1651708968490084,-6.9273143327003055
0.455440146793472,1.1601115180181927,-6.929943461025056
0.4698219002513508,1.1548769221970032,-6.932594993829311
0.48414528073420804,1.1494676511654365,-6.935268580493819
0.49840818524784697,1.1438842714512154,-6.937963866610464
0.5126085139593402,1.1381273743839566,-6.940680494007039
0.5267441704740355,1.1321975761468055,-6.943418100772781
0.5408130621152984,1.126095517825468,-6.946176321284676
0.5548131002069814,1.119821865454551,-6.948954786234558
0.56874220035861,1.113377310061137,-6.951753122657006
0.582598282753277,1.1067625677055093,-6.954570953958045
0.5963792724382272,1.0999783795189444,-6.957407899944678
0.6100830996181213,1.0930255117384944,-6.9602635768552465
0.6237076999509583,1.0859047557386716,-6.963137597390648
0.6372510148466382,1.0786169280599531,-6.966029570746399
0.6507109917681434,1.0711628704340252,-6.968939102645577
0.6640855845353147,1.0635434498056782,-6.971865795372638
0.6773727536311966,1.0557595583512724,-6.974809247808132
0.6905704665109214,1.0478121134936855,-6.977769055464309
0.7036766979131045,1.0397020579136627,-6.9807448105216565
0.716689430173719,1.0314303595574765,-6.983736101866338
0.7296066535424091,1.0229980116408188,-6.986742515128583
0.7424263665012129,1.014406032648836,-6.989763632722011
0.75514657608565,1.0056554663322197,-6.992799033883905
0.7677652982081332,0.9967473816992751,-6.995848294716462
0.7802805579836609,0.9876828730038714,-6.99891098822899
0.7926903900577436,0.9784630597291984,-7.0019866843811
0.8049928389365149,0.9690890865672411,-7.005074950126884
0.8171859593189785,0.9595621233938837,-7.008175349460085
0.8292678164313321,0.949883365239567,-7.011287443460269
0.8412364863633174,0.9400540322554051,-7.014410790339998
0.8530900564065356,0.9300753696746887,-7.01754494549304
0.8648266253946676,0.9199486477696825,-7.020689461543586
0.8764443040455341,0.9096751618036409,-7.023843888396494
0.8879412153049322,0.899256231977954,-7.027007773288573
0.8993154946921793,0.888693203374351,-7.030180660840915
0.9105652906472903,0.8779874458920721,-7.033362093112247
0.9216887648797207,0.8671403541799351,-7.036551609653357
0.9326840927185941,0.8561533475632153,-7.0397487475625535
0.9435494634643384,0.8450278699652621,-7.042953041542194
0.954283080741651,0.8337653898237749,-7.046164023956259
0.964883162853705,0.8223674000016636,-7.049381224888997
0.9753479431375175,0.8108354176924194,-7.052604172204627
0.9856756703203844,0.7991709843199207,-7.0558323916081065
0.9958646088772972,0.7873756654326061,-7.059065406706964
1.0059130393892444,0.7754510505919391,-7.062302739074192
1.0158192589023025,0.7633987532551012,-7.0655439083122165
1.0255815812874216,0.7512204106518414,-7.068788432117916
1.0351983376008005,0.7389176836554165,-7.0720358263487135
1.0446678764447521,0.7264922566475648,-7.075285605089726
1.0539885643289517,0.7139458373774376,-7.078537280721965
1.0631587860319607,0.7012801568144438,-7.081790363991609
1.0721769449629184,0.6884969689949362,-7.085044364080307
1.0810414635232857,0.675598050862689,-7.0882987886765445
1.0897507834685285,0.6625852021031116,-7.091553144048041
1.0983033662696244,0.6494602449711432,-7.094806935115193
1.106697693474273,0.6362250241127829,-7.0980596655255335
1.114932267067687,0.6228814063802013,-7.101310837729233
1.1230056098328478,0.6094312806403933,-7.1045599530556
1.1309162657100873,0.5958765575773266,-7.107806511790592
1.1386628001558838,0.5822191694875433,-7.111050013255335
