19.57222988858516,-21.82450664139236,-2.3433582209147152
19.308109980959852,-22.068958620451944,-2.3439863534904912
19.040990595366885,-22.310276651714393,-2.344621061382164
18.77090742182871,-22.548423744337786,-2.345262259337577
18.497896611220867,-22.78336327546581,-2.345909861083595
18.221994772456227,-23.015058996030852,-2.346563779333097
17.94323896959594,-23.243475036563044,-2.347223925792148
17.661666718886224,-23.468575913004543,-2.347890211167335
17.377315985719928,-23.690326532527937,-2.3485625451732766
17.090225181521838,-23.90869219935815,-2.349240836540306
16.800433160556814,-24.123638620596523,-2.3499249930223365
16.50797921665971,-24.33513191204636,-2.3506149214048992
16.212903079886086,-24.54313860403874,-2.3513105275133697
15.915244913082823,-24.74762564725761,-2.3520117162213703
15.61504530837765,-24.94856041856294,-2.3527183914593635
15.312345283586625,-25.145910726810985,-2.3534304562234314
15.007186278538677,-25.339644818670294,-2.354147812584246
14.699610151316291,-25.529731384432385,-2.354870361696225
14.389659174411454,-25.716139563815794,-2.3555980038068927
14.077376030795966,-25.898838951762244,-2.3563306382664235
13.76280380990525,-26.077799604223607,-2.3570681635373933
13.445986003534875,-26.25299204393835,-2.357810477204721
13.126966501648932,-26.424387266196035,-2.358557475985818
12.805789588099405,-26.59195674458857,-2.359309055740938
12.284341518145645,-26.330928855523577,-2.3225993176509974
11.927892643861291,-26.407955050797394,-2.316306921526973
11.57180352808663,-26.481113791696863,-2.3100934519912455
11.216103760255864,-26.550429444865184,-2.303958842296219
10.860822318012264,-26.615926295289277,-2.297903018989925
10.505987579972743,-26.67762853749247,-2.291925902257194
10.151627338413242,-26.735560267101263,-2.2860274062526016
9.79776881187007,-26.78974547277647,-2.280207439425291
9.444438657652778,-26.840208028499454,-2.2744659048358087
9.091662984264438,-26.886971686204042,-2.2688027004650633
8.739467363725355,-26.93006006874506,-2.2632177195155316
8.38787684379696,-26.969496663194484,-2.2577108507048473
8.036915960102464,-27.005304814456327,-2.2522819785518866
7.68660874814142,-27.037507719191648,-2.2469309836554814
7.336978755195524,-27.06612842004503,-2.241657742965887
6.988049052123256,-27.09118980016431,-2.236462130049137
6.639842245041189,-27.112714578005313,-2.2313440153444053
6.29238048689006,-27.130725302413417,-2.226303266414508
5.945685488883955,-27.145244347974295,-2.2213397481896706
5.599778531840934,-27.156293910625994,-2.2164533232046946
5.254680477394241,-27.163896003524815,-2.2116438518296375
4.910411779082479,-27.168072453157716,-2.206911192494151
4.566992493318328,-27.16884489569391,-2.202255201905583
4.224442290234842,-27.16623477356875,-2.1976757352609857
3.8827804644088473,-27.160263332292974,-2.1931726464531427
3.542025945461079,-27.15095161748065,-2.188745788270745
3.2021973085327904,-27.13832047208926,-2.1843950125928324
2.8633127846387767,-27.12239053386559,-2.1801201705776223
2.5253902708968186,-27.103182232991287,-2.1759211128458524
2.1884473406338385,-27.080715789921914,-2.171797689658737
1.8525012533687766,-27.055011213413845,-2.1677497510906774
1.5175689646731059,-27.0260882987331,-2.1637771471968192
1.1836671359089042,-26.99396662604075,-2.1598797281755835
0.8508121438455866,-26.958665558949384,-2.1560573445262756
0.5190200901557621,-26.920204243245546,-2.152309847201889
0.18830681079109715,-26.878601605772943,-2.1486370877571996
-0.14131211476093844,-26.833876353471645,-2.145038918492271
-0.4698213543384734,-26.78604697256841,-2.1415151925914624
-0.7972058140837498,-26.735131727913668,-2.138065764258052
-1.123450629537655,-26.681148662460544,-2.134690488844567
-1.4485411568490199,-26.624115596881733,-2.1313892229789206
-1.7724629640977194,-26.56405012932004,-2.128161824686461
-2.0952018227298086,-26.50096963526854,-2.125008153508014
-2.416743699103959,-26.434891267576457,-2.1219280706140164
-2.7370747461473406,-26.36583195657715,-2.1189214389148368
-3.0561812951197886,-26.29380841033437,-2.1159881231673605
-3.3740498474847316,-26.218837115003616,-2.1131279900779334
-3.6906670668854056,-26.14093433530494,-2.1103409084017457
-4.006019771224834,-26.06011611510426,-2.107626749038734
-4.320094924848049,-25.976398278099914,-2.104985385126091
-4.632879630824991,-25.889796428611607,-2.102416692127448
-4.944361123332446,-25.800325952468903,-2.099920547918817
-5.254526760133576,-25.708002017996478,-2.0974968328713577
-5.563364015153231,-25.612839577093677,-2.0951454299310464
-5.870860471147555,-25.514853366405756,-2.092866224695313
-6.177003812466221,-25.414057908584613,-2.090659105486714
-6.481781817905621,-25.310467513636585,-2.0885239634237065
-6.785182353651437,-25.204096280355333,-2.086460692488588
-7.087193366308864,-25.094958097837722,-2.0844691895926593
-7.3878028760189425,-24.983066647080765,-2.0825493546386715
-7.686998969659205,-24.868435402657887,-2.080701090580617
-7.984769794127309,-24.75107763447271,-2.0789243034809135
-8.281103549705525,-24.631006409588885,-2.0772189025650345
-8.575988483505057,-24.50823459413429,-2.0755848002736443
-8.869412882988096,-24.38277485527838,-2.0740219123122747
-9.1613650695663,-24.25463966328123,-2.0725301576986
-9.451833392273995,-24.123841293613165,-2.0711094588073493
-9.740806221514598,-23.990391829143764,-2.069759741412902
-10.028271942878645,-23.854303162399244,-2.068480934729599
-10.314218951031975,-23.715586997887375,-2.067272971449825
-10.598635643672548,-23.574254854488895,-2.066135787779879
-10.881510415554278,-23.430318067914822,-2.06506932347368
-11.162831652576774,-23.283787793228903,-2.06407352186434
-11.442587725939001,-23.134675007434648,-2.0631483298936244
-11.720766986356114,-22.98299051212637,-2.0622936981393485
-11.997357758337426,-22.828744936203943,-2.0615095808407133
-11.76984718177511,-21.743627600291063,-1.9764149922623635
-12.038701994273465,-21.602783973502337,-1.9768933899358956
-12.306050810341054,-21.45892712681941,-1.9774004992506757
-12.571863732421036,-21.312070204618983,-1.9779362877956315
-12.836110909208085,-21.162226570053814,-1.9785007212356849
-13.098762535218496,-21.009409806744163,-1.9790937632988845
-13.359788850416072,-20.853633720533423,-1.979715375762861
-13.61916013989595,-20.694912341306846,-1.980365518440616
-13.876846733627518,-20.533259924872713,-1.981044149165648
-14.132819006258591,-20.368690954904544,-1.9817512237764128
-14.387047376981956,-20.201220144943733,-1.9824866961001293
-14.639502309466515,-20.030862440461288,-1.9832505179359345
-14.890154311854248,-19.857633020977765,-1.9840426390373875
-15.138973936824874,-19.681547302240165,-1.9848630070943312
-15.385931781729784,-19.50262093845483,-1.9857115677141177
-15.630998488796934,-19.320869824574995,-1.9865882644021988
-15.874144745408445,-19.136310098641918,-1.987493038542091
-16.115341284452253,-18.948958144178427,-1.9884258293747195
-16.35455888474995,-18.75883059263333,-1.9893865739771457
-16.591768371561933,-18.56594432587591,-1.9903752072406884
-16.826940617171957,-18.37031647873856,-1.9913916618484393
-17.060046541552484,-18.171964441606775,-1.9924358682521925
-17.291057113112494,-17.9709058630547,-1.9935077546487734
-17.519943349529477,-17.767158652525,-1.9946072469557994
-17.74667631866725,-17.560740983051556,-1.9957342687868656
-17.971227139581046,-17.351671294023387,-1.996888741426161
-18.19356698361174,-17.13996829398844,-1.9980705838025405
-18.41366707557074,-16.925650963495347,-1.999279712463043
-18.631498695016997,-16.708738557971955,-2.0005160415458745
-18.847033177628067,-16.48925061063845,-2.001779482752867
-19.060241916666445,-16.267206935453913,-2.0030699453214202
-19.27109636454316,-16.04262763009393,-2.004387335995933
-19.479568034479755,-15.815533078958119,-2.0057315589987463
-19.685628502270696,-15.58594395620515,-2.0071025160005953
-19.889249408147414,-15.353881228813648,-2.0085001060905934
-20.090402458745686,-15.11936615966708,-2.0099242257457566
-20.289059429177797,-14.882420310660482,-2.0113747688000747
-20.48519216521115,-14.643065545827062,-2.012851626413155
-20.6787725855547,-14.401324034482474,-2.0143546870384386
-20.869772684254652,-14.15721825438496,-2.015883836391013
-21.058164533201143,-13.910770994908642,-2.0174389574150307
-21.24392028474696,-13.662005360228283,-2.0190199302507486
-21.427012174440197,-13.41094477251267,-2.020626632201205
-21.607412523871773,-13.157612975124803,-2.0222589376985525
-21.785093743639614,-12.902034035826043,-2.023916718270053
-22.784715964592365,-13.119074268529644,-2.1016692857725627
-22.97179915550233,-12.854042872586707,-2.1042164629831746
-23.15660310523089,-12.586827159139942,-2.1068362746554
-23.339108864274262,-12.317434034771987,-2.109528844619406
-23.519297230945643,-12.0458704612029,-2.1122942990576044
-23.697148748027626,-11.772143462259052,-2.115132766416439
-23.87264369948683,-11.496260130970114,-2.118044377314873
-24.045762107252617,-11.218227636797259,-2.121029264449495
-24.216483728062677,-10.938053232994415,-2.1240875624961792
-24.384788050377463,-10.655744264105628,-2.127219408008206
-24.550654291366566,-10.371308173600676,-2.1304249393107635
-24.714061393969413,-10.084752511651459,-2.133704296391742
-24.874988024033375,-9.796084943052039,-2.137057620788745
-25.033412567532146,-9.505313255284552,-2.140485055472207
-25.189313127867777,-9.212445366733608,-2.143986744724549
-25.342667523259475,-8.917489335051718,-2.1475628340152597
-25.493453284222674,-8.62045336567858,-2.1512134698718186
-25.641647651142154,-8.321345820516198,-2.1549387997463554
-25.78722757194273,-8.02017522676306,-2.158738971877953
-25.930169699861704,-7.716950285909201,-2.162614135150485
-26.07045039132698,-7.411679882895353,-2.166564438945895
-26.208045703945274,-7.104373095438079,-2.1705900329927954
-26.342931394604786,-6.795039203523616,-2.174691067210299
-26.475082917696906,-6.4836876990730765,-2.1788676915469543
-26.604475423461956,-6.1703282957808225,-2.183120055814692
-26.731083756463672,-5.854970939129092,-2.187448309517654
-26.85488245419786,-5.5376258165804515,-2.191852601675801
-26.975845745840445,-5.218303367951088,-2.1963330806431833
-27.09394755114049,-4.89701429596636,-2.2008898939207464
-27.20916147946396,-4.573769577001546,-2.2055231879635673
-27.321460828994244,-4.248580472009073,-2.2102331079823903
-27.430818586095448,-3.9214585376349675,-2.2150197977393478
-27.537207424844993,-3.5924156375258214,-2.219883399337737
-27.640599706742048,-3.2614639538283843,-2.224824053005739
-27.740967480598442,-2.928615998883535,-2.229841896873937
-27.83828248261938,-2.5938846271161764,-2.2349370667465354
-27.9325161366809,-2.2572830471224195,-2.240109695866126
-28.0236395548117,-1.9188248339555194,-2.24535991467189
-28.111623537886967,-1.5785239416120307,-2.250687850551107
-28.196438576542114,-1.236394715718821,-2.2560936275838377
-28.278054852314607,-0.8924519064221401,-2.261577366280657
-28.35644223902224,-0.5467106814795717,-2.2671391833133074
-28.43157030438646,-0.19918663955537372,-2.272779191238147
-28.50340831190964,0.1501041762804913,-2.2784974982122597
-28.57192522301534,0.5011452648493255,-2.2842942077021062
-28.637089699460965,0.8539196529565654,-2.2901694181845897
-28.6988701060323,1.2084098812808755,-2.2961232228404036
-28.757234513529845,1.564597990060029,-2.302155709239548
-28.81215070205691,1.9224655045742123,-2.3082669590188827
-28.863586164619907,2.281993420427464,-2.314457047551607
-28.911508111051234,2.643162188628962,-2.3207260436085315
-28.955883472265672,3.005951700475454,-2.3270740090110453
-28.996678904861213,3.370341272236584,-2.3335009982756474
-29.03386079607579,3.7363096296454197,-2.340007058249947
-29.067395269111096,4.103834892196767,-2.3465922277400084
-29.09724818883556,4.472894557256063,-2.3532565371289533
-29.123385167878258,4.843465483981976,-2.360000007986708
-29.145771573126016,5.21552387706645,-2.366822652670811
-29.16437253263618,5.589045270296353,-2.3737244739181818
-29.179152942977506,5.964004509941089,-2.3807054644277668
-29.190077477012338,6.3403757379708985,-2.38776560643399
-29.197110592132848,6.7181323751116215,-2.3949048712709287
-29.200216538964643,7.097247103741598,-2.4021232189271458
-29.19935937055136,7.477691850636963,-2.4094205975911267
-28.21330196138623,7.595289133847838,-2.3355705712656345
-28.146394481892077,7.948964866961297,-2.337931462841539
-28.07539700452197,8.30224334207652,-2.3403211758963005
-28.00030550958209,8.655080873294354,-2.3427395116361516
-27.921116352208863,9.007433525113294,-2.3451862671256145
-27.83782626919116,9.359257112780396,-2.3476612352377892
-27.750432385895444,9.71050720277845,-2.3501642046045803
-27.65893222329207,10.061139113453079,-2.352694959566893
-27.563323705081025,10.411107915784092,-2.3552532801248387
-27.705345624443893,10.85508347242113,-2.3785931387927106
-27.596188029330964,11.204865762952723,-2.380848108123978
-27.483167129689445,11.553834624796018,-2.3831510334520316
-27.366282554416447,11.901954194395532,-2.385501832986199
-27.245534125527463,12.249188400486224,-2.387900421938945
-27.120921863770345,12.595500960961354,-2.3903467124457642
-26.99244599438661,12.940855379820622,-2.392840613483375
-26.860106953020086,13.285214944202393,-2.395382030786198
-26.72390539177357,13.628542721502628,-2.397970866761143
-26.583842185413722,13.970801556584624,-2.4006070204006917
-26.439918437724238,14.311954069083056,-2.4032903871943043
-26.292135488007574,14.651962650805904,-2.4060208590381253
-26.14049491773548,14.990789463237922,-2.4087983241430244
-25.984998557348323,15.328396435149632,-2.411622666940968
-25.825648493203108,15.664745260315708,-2.4144937679897303
-25.662447074670293,15.999797395346762,-2.417411503875955
-25.49539692137925,16.33351405763842,-2.4203757471165823
-25.324500930612313,16.665856223441885,-2.4233863660586503
-25.1497622848467,16.996784626060634,-2.426443224777484
-24.971184459444615,17.32625975417682,-2.4295461829732896
-24.788771230490664,17.654241850312264,-2.432695095866165
-24.60252668277625,17.980690909428468,-2.435889814089553
-24.412455217930223,18.305566677670107,-2.4391301835821424
-24.218561562695296,18.628828651256548,-2.442416045478251
-24.02085077734935,18.950436075526245,-2.4457472359967
-23.819328264270652,19.270347944138827,-2.4491235863282137
-23.613999776646047,19.588522998439714,-2.4525449225213602
-23.40487142732107,19.9049197269921,-2.4560110653670666
-22.978462952642147,20.033371674437447,-2.4368814176811866
-22.725238844241353,20.308791865036753,-2.436275321108238
-22.468648094556013,20.58095230274386,-2.435661819995935
-22.20873429326429,20.84981191161525,-2.4350410180788207
-21.9455415286651,21.115330236660046,-2.4344130201750533
-21.679114377909798,21.377467449752928,-2.433777932163466
-21.409497897169516,21.636184355372823,-2.4331358609605025
-21.136737611741555,21.891442396166752,-2.4324869144970265
-20.86087950609837,22.14320365833869,-2.4318312016950183
-20.581970013882692,22.391430876863012,-2.43116883244416
-20.300056007852515,22.636087440522132,-2.4304999175783304
-20.015184789779138,22.877137396768454,-2.429824568851999
-19.72740408030189,23.11454545641057,-2.4291428989165467
-19.436762008743166,23.348276998123392,-2.428455021296506
-19.14330710288706,23.57829807278262,-2.427761050365737
-18.847088278725018,23.80457540762362,-2.4270611013235444
-18.548154830172006,24.027076410225018,-2.426355290170741
-18.246556418756608,24.245769172317043,-2.4256437336856713
-17.942343063288426,24.460622473415356,-2.4249265494002006
-17.635565129505963,24.671605784280576,-2.4242038555756693
-14.974129044534973,21.50125977564783,-2.418406367781369
-14.705301028835681,21.677725398510486,-2.4177738695801656
-14.434370790526616,21.85079138686076,-2.4171368765964036
-14.161382381641767,22.02043334818244,-2.416495492048426
-13.886380119934904,22.186627484933105,-2.415849819707108
-13.609408580271765,22.34935059693551,-2.4151999638759145
-13.330512586016509,22.508580083632097,-2.414546029370952
-13.049737200414809,22.6642939462032,-2.41388812150103
-12.767127717976065,22.816470789549623,-2.4132263460477343
-12.482729655857021,22.965089824140207,-2.412560809245511
-12.196588745249189,23.110130867725214,-2.4118916177617753
-11.908750922772377,23.25157434691627,-2.411218878677049
-11.619262321876628,23.38940129863367,-2.4105426994651244
-11.32816926425473,23.523593371421967,-2.409863187973269
-11.03551825126765,23.654132826634708,-2.409180452402471
-10.741355955384972,23.781002539489315,-2.4084946012877304
-10.445729211642544,23.904185999993018,-2.407805743478405
-10.148685009119413,24.02366731374098,-2.4071139881186054
-9.850270482436173,24.139431202587584,-2.4064194446276628
-9.550532903276718,24.251463005192033,-2.405722222680649
-9.035919333905175,23.7972058929074,-2.3494829422796064
-8.761399028520996,23.956030650075068,-2.3543705460818525
-8.491414424800261,24.131802627905774,-2.3612257084052746
-8.219811999632242,24.308627902567693,-2.3684786349150078
-7.946494601506382,24.486569724233643,-2.376135197659824
-7.671362808051675,24.665692821528037,-2.3842016419139114
-7.394314771737457,24.846063501983085,-2.3926845990413983
-7.110713546040687,25.011806726408736,-2.4000612527945426
-6.801214175146273,25.089691877107544,-2.3993448927769228
-6.4908701625440495,25.163732284946583,-2.3986269608912405
-6.179729736685654,25.23392007469761,-2.3979075683635513
-5.867841163867277,25.300247985124464,-2.397186826448628
-5.555252740224654,25.362709368009025,-2.3964648464117118
-5.242012783776064,25.421298187070033,-2.395741739510392
-4.928169626514653,25.476009016776256,-2.3950176169765993
-4.613771606551681,25.526837041055533,-2.39429258999873
-4.298867060311904,25.573778051901204,-2.3935667697038987
-3.9835043147824782,25.616828447877577,-2.392840267140324
-3.6677316798166415,25.655985232525868,-2.3921131932598465
-3.35159744049342,25.691246012672348,-2.391385658900588
-3.03514984953455,25.722608996640073,-2.3906577747697475
-2.7184371197797614,25.7500729923661,-2.389929651426542
-2.4015074167215404,25.77363740542548,-2.389201399265291
-2.084408851100422,25.793302236963946,-2.38847312849865
-1.767189471561902,25.809068081540705,-2.38774494914099
-1.4498972573757936,25.82093612488309,-2.387016970991935
-1.1325801112191844,25.82890814155473,-2.3862893036200457
-0.8152858520237326,25.83298649253877,-2.3855620563466644
-0.4980622078882258,25.83317412273794,-2.3848353382299132
-0.18095680905721054,25.82947455839302,-2.3841092580488548
0.13598281903352913,25.82189190442142,-2.38338392428781
0.4527092626439079,25.81043084167753,-2.382659445120845
0.7691752265481917,25.795096624136416,-2.3819359283964086
1.0853335407847229,25.775895076002712,-2.3812134816221513
1.401137167336027,25.752832588746102,-2.380492211949897
1.7165392067388985,25.72591611806528,-2.3797722261607888
2.031492904623691,25.695153180781883,-2.379053630650602
2.345951658182488,25.66055185166618,-2.3783365314152274
2.6598690225656116,25.622120760195987,-2.3776210340363235
2.9731987172060617,25.57986908725055,-2.376907243667138
3.285894632071491,25.533806561741063,-2.3761952650185085
3.5979108338433665,25.483943457179343,-2.375485202345028
3.909201572022986,25.430290588186278,-2.374777159431388
4.219721284964086,25.37285930694173,-2.3740712395788934
4.529424605831791,25.311661499577408,-2.373367545592153
4.838266368487623,25.246709582514328,-2.372666179765944
5.146201613300565,25.178016498746388,-2.371967243872249
5.45318559288382,25.105595714071693,-2.3712708391474746
5.75917377775727,25.029461213273056,-2.370577066279834
6.064121861935559,24.949627496249327,-2.3698860253969163
6.367985768441697,24.866109574098967,-2.3691978160534224
6.670721654746202,24.77892296515742,-2.368512537219082
6.9722859181317745,24.688083690989778,-2.3678302872667403
7.272635200983544,24.593608272340138,-2.3671511639606213
7.571726396004974,24.495513725039196,-2.3664752644447686
7.869516651359499,24.393817555871422,-2.3658026852316527
8.165963375738,24.288537758403358,-2.365133522190961
8.461024243352385,24.179692808774224,-2.3644678705385505
8.5278270610567,23.44372620574673,-2.302560434081516
8.810026844318074,23.32447456358,-2.301293898055965
9.090690971863136,23.202100286042683,-2.300054221000938
9.369789042588513,23.07662275342588,-2.298841504770916
9.6472908959494,22.948061544267595,-2.2976558485530427
9.923166610674551,22.816436432778797,-2.296497348889394
10.19738650346952,22.681767386355418,-2.2953660996988687
10.469921127710213,22.54407456317595,-2.294262192298694
10.740741272128858,22.40337830988388,-2.293185715425534
11.009817959494491,22.259699159354277,-2.2921367552561844
11.27712244528982,22.113057828544086,-2.291115395427852
11.54262621638661,21.963475216425202,-2.2901217170580064
11.806300989721464,21.81097240199973,-2.2891557987637934
12.06811871097392,21.655570642396693,-2.2882177166810007
12.328051553248804,21.49729137104929,-2.2873075444825672
12.586071915764716,21.33615619595213,-2.286425353396632
12.842152422550397,21.172186897997392,-2.2855712122241094
13.096265921150964,21.005405429389207,-2.284745187355783
13.348385481345627,20.835833912135413,-2.2839473427889163
13.598484393878747,20.663494636615674,-2.2831777401433637
13.846536169205974,20.488410060225206,-2.2824364386771867
14.092514536257127,20.31060280609307,-2.2817234953017564
14.336393441217515,20.130095661874147,-2.281038964596346
14.57814704632942,19.946911578613832,-2.280382898822203
14.81774972871526,19.761073669684382,-2.2797553479360904
15.055176079224124,19.572605209792023,-2.279156359603305
15.290400901303247,19.381529634053756,-2.2785859792101517
15.52339920989596,19.187870537142775,-2.278044249875881
15.754146230367681,18.99165167250146,-2.277531212464076
15.982617397461413,18.79289695162095,-2.277046905593493
16.20878835428429,18.59163044338606,-2.2765913656483447
16.432634951326605,18.38787637348458,-2.276164626788024
16.654133245514732,18.18165912387973,-2.275766720956267
16.873259499299422,17.97300323234464,-2.2753976778897487
17.089990179780848,17.761933392057774,-2.2750575251261083
17.3043019578717,17.54847445125799,-2.2747462880114044
17.51617170749983,17.33265141295823,-2.274463989706994
17.72557650485161,17.11448943471644,-2.2742106511958324
17.932493627657433,16.894013828462636,-2.273986291288194
18.136900554520604,16.67125006038082,-2.2737909266268113
18.33877496429086,16.446223750844517,-2.2736245716914296
18.53809473548379,16.218960674404663,-2.2734872388027756
18.73483794574743,15.989486759828553,-2.273378938125938
18.92898287137708,15.75782809018855,-2.273299677673161
19.120507986879765,15.524010902999287,-2.2732494633060463
19.30939196458927,15.288061590401941,-2.2732282987371693
19.495613674332997,15.050006699394352,-2.273236185531097
19.67915218315186,14.80987293210555,-2.2732731231048238
19.859986755074097,14.567687146113334,-2.273339108727605
20.038096850944317,14.32347635480352,-2.27343413752021
20.21346212830868,14.077267727769467,-2.2735582024535765
20.38606244135737,13.829088591250434,-2.273711294346879
20.55587784092526,13.578966428607357,-2.2738934018650028
20.722888574551927,13.326928880834565,-2.274104511515432
20.887075086601897,13.073003747106034,-2.274344607644552
21.048418018446093,12.817218985354561,-2.2746136724333588
21.206898208705507,12.559602712882546,-2.274911685892589
21.36249669355791,12.300183207002679,-2.275238625857264
21.51519470710866,12.038988905707136,-2.2755944679806577
21.664973681826286,11.776048408363664,-2.275979185727674
21.81181524904398,11.511390476436983,-2.276392750367664
21.95570123952758,11.245044034233988,-2.2768351309666537
22.096613684111073,10.97703816967105,-2.277306294379013
22.234534814400295,10.707402135061887,-2.2778062052385484
22.36944706354573,10.436165347924328,-2.2783348259490386
21.880486269868864,9.882934544551045,-2.216013936629484
21.964164842074407,9.597972434629476,-2.212392518091545
22.04439132806964,9.312549199279779,-2.2087952697798934
22.12117185942044,9.026705077474633,-2.2052225528310467
22.194512963240463,8.740479957116351,-2.2016747214718615
22.264421552422654,8.453913374078553,-2.1981521230914787
22.330904915990793,8.167044511455554,-2.1946550983143958
22.39397070957391,7.87991219901391,-2.191183981074582
22.45362694600619,7.592554912840321,-2.187739098690557
22.509881986054854,7.3050107751803095,-2.184320771941352
22.56274452927838,7.017317554462062,-2.1809293151432794
22.61222360501715,6.729512665499851,-2.177565036227433
22.65832856351846,6.441633169871571,-2.174228236817849
22.701069067197864,6.153715776464932,-2.1709192123102574
22.740455082038295,5.865796842186872,-2.1676382519513466
22.776496869128668,5.577912372830907,-2.1643856389184846
22.809204976343224,5.2900980240970785,-2.161161650399826
22.83859023016288,5.002389102759338,-2.1579665576747398
22.864663727639634,4.714820567975182,-2.1548006261944974
22.887436828505056,4.4274270327324805,-2.1516641156631624
22.906921147423628,4.14024276542846,-2.1485572801186232
22.923128546391634,3.853301691575939,-2.1454803680137067
22.936071127282293,3.5666373956318864,-2.1424336222973297
22.94576122453749,3.280283122943586,-2.139417280495622
22.952211398006497,2.994271781807627,-2.1364315747929763
22.955434425932054,2.708635945637109,-2.133476732112979
22.95544329808378,2.4234078552325053,-2.130552974199162
22.95225120903916,2.1386194211516436,-2.1276605176955443
22.945871551611972,1.854302226174484,-2.124799574226903
22.936317910428073,1.5704875278582973,-2.121970350478743
22.92360405564828,1.2872062611790216,-2.1191730482769144
22.907743936838205,1.0044890412546545,-2.1164078646668463
22.88875167698449,0.7223661661465163,-2.1136749919923465
22.866641566657172,0.4408676197344856,-2.110974617973942
22.841428058317554,0.16002307466219592,-2.1083069257867146
22.81312576077108,-0.12013810465161379,-2.1056720941376046
22.781749433764524,-0.3995868589393702,-2.1030702973421405
22.74731398272686,-0.6782944309522483,-2.100501705400573
22.709834453652967,-0.9562323622726445,-2.0979664840733765
22.669326028129465,-1.233372490075141,-2.0954647949560865
22.625804018501718,-1.5096869438393203,-2.0929967955534527
22.70538393421431,-1.7951177809522407,-2.102237947521148
22.703755211609685,-2.07563393388933,-2.104287184945091
22.699348738816603,-2.356451876403154,-2.106400540589889
22.69215642636115,-2.637554169936061,-2.108578069741914
22.68217009841596,-2.918923223997176,-2.1108198285232618
22.669381494373777,-3.200541290329928,-2.113125873814803
22.653782270535473,-3.4823904570474573,-2.1154962631764516
22.635364001914684,-3.764452642736151,-2.117931054764606
22.614118184161242,-4.046709590527592,-2.1204303072467097
22.590036235605655,-4.329142862139371,-2.1229940797128943
22.56310949942698,-4.611733831885037,-2.1256224315846435
22.53332924594647,-4.89446368065385,-2.1283154225204384
22.500686675049526,-5.177313389860698,-2.131073112318327
22.465172918738435,-5.460263735366952,-2.1338955608153674
22.42677904381845,-5.74329528137283,-2.136782827783893
22.38549605471997,-6.026388374282089,-2.1397349728245425
22.169619937073236,-6.261033899281639,-2.1262848182644842
22.156795169091204,-6.552039322710667,-2.1326062810042767
22.140964307325607,-6.843919493201529,-2.1390057360046937
22.12210171771721,-7.136654499932573,-2.1454832777556003
22.10018159442571,-7.430223889653488,-2.1520389928537207
22.07517796628344,-7.7246066534503335,-2.158672959598438
22.04706470361155,-8.019781213373793,-2.1653852475775457
22.015815525409543,-8.315725408934671,-2.1721759172428006
21.981404006929353,-8.612416483471328,-2.1790450194751725
21.943803587645302,-8.909831070393931,-2.185992595139642
21.90298757963153,-9.207945179311045,-2.1930186746294615
21.85892917635845,-9.506734182044339,-2.200123277399744
21.811601461920088,-9.80617279853779,-2.2073064114902894
21.760977420704297,-10.106235082668197,-2.2145680730375497
21.707029947517892,-10.406894407964447,-2.221908245775649
21.64973185817902,-10.708123453243195,-2.2293269005263783
21.58905590058884,-11.009894188169648,-2.2368239946780895
21.524974766295163,-11.312177858752243,-2.2443994716534394
21.457461102560508,-11.614944972780906,-2.2520532603659347
21.386487524946926,-11.918165285219105,-2.2597852746652327
21.312026630430378,-12.221807783560447,-2.2675954127711773
21.234051011057236,-12.52584067316144,-2.2754835566965665
21.15253326815549,-12.830231362562488,-2.2834495716586463
21.067446027113327,-13.134946448810073,-2.2914933054793463
20.97876195273758,-13.439951702793564,-2.299614587974299
20.88645376520467,-13.745212054611306,-2.3078132303306877
20.790494256616423,-14.050691578980635,-2.3160890244739907
20.690856308172958,-14.356353480708144,-2.3244417424237063
20.58751290797511,-14.662160080236603,-2.332871135638175
20.48043716946806,-14.968072799286169,-2.3413769343486055
20.369602350538283,-15.274052146608243,-2.349958846882478
20.2549818732751,-15.58005770387118,-2.3586165589764705
19.920780674076433,-15.71582473234618,-2.3419829288973038
19.730294819676626,-15.96223209979975,-2.3424425641873805
19.53681617143577,-16.206376577886743,-2.342908841733047
19.3403704953513,-16.448222046239096,-2.3433816990984395
19.140983988279125,-16.687732649566108,-2.34386107288571
18.938683275921733,-16.924872802646547,-2.344346898740103
18.733495410762664,-17.15960719532539,-2.344839111355162
18.525447869946422,-17.391900797514737,-2.345337644478056
18.314568553103353,-17.62171886419837,-2.3458424309150363
18.100885780118585,-17.849026940439497,-2.346353402537021
17.884428288844376,-18.073790866391107,-2.3468704902853075
17.665225232755144,-18.295976782308507,-2.3473936241774163
17.443306178544503,-18.515551133563374,-2.3479227333130726
17.21870110366347,-18.73248067565876,-2.348457745880318
16.99144039379929,-18.946732479244428,-2.3489985891617584
16.76155484029401,-19.15827393513197,-2.349545189540951
16.529075637502235,-19.36707275930892,-2.350097472508934
16.294034380087233,-19.573096997951186,-2.3506553626708895
16.056463060254824,-19.77631503243324,-2.351218783752957
15.816394064924241,-19.9766955843351,-2.351787658609185
15.573860172835387,-20.174207720445597,-2.3523619092286308
15.328894551591688,-20.368820857760895,-2.3529414567426072
15.081530754638017,-20.560504768477628,-2.3535262214320762
14.831802718172897,-20.74922958497978,-2.354116122735194
14.579744757994401,-20.934965804818372,-2.354711079255007
14.325391566279134,-21.117684295683183,-2.3553110087672984
14.068778208293518,-21.297356300365536,-2.3559158282285937
13.809940119036987,-21.4739534417112,-2.3565254537843154
13.548913099816266,-21.647447727562483,-2.357139800777097
13.285733314750297,-21.817811555688564,-2.357758783755259
13.020437287205096,-21.98501771870292,-2.3583823164814355
12.753061896158101,-22.149039408967024,-2.3590103119413697
12.483644372491348,-22.309850223479078,-2.359642682352865
12.212222295213001,-22.467424168746774,-2.3602793391749004
11.938833587606679,-22.621735665643,-2.3609201931169133
11.663516513308082,-22.77275955424331,-2.361565154148241
11.386309672308466,-22.920471098644022,-2.3622141315077307
11.107251996884381,-23.064845991759842,-2.3628670337135205
10.826382747453371,-23.20586036009967,-2.3635237685729793
10.54374150835508,-23.34349076851949,-2.364184243192824
10.259368183557422,-23.477714224951068,-2.3648483639894007
9.973302992287392,-23.60850818510515,-2.365516036699139
9.685586464586128,-23.73585055714791,-2.366187166389172
9.396259436787957,-23.859719706349367,-2.36686165746814
8.960946103204275,-23.59975466060708,-2.329988708195598
8.651174828977803,-23.654647926375198,-2.3247510060945524
8.341651535290705,-23.7061905555431,-2.319580822502376
8.032403290199765,-23.75440007065397,-2.314478187665401
7.723456708133282,-23.799293988062956,-2.3094431258178245
7.414837958490852,-23.840889810814616,-2.304475655434337
7.106572774228308,-23.879205021786145,-2.299575789477455
6.798686460423752,-23.91425707709105,-2.2947435356396158
6.4912039028205974,-23.946063399737582,-2.289978896580074
6.18414957634396,-23.974641373536958,-2.285281870156664
5.877547553586766,-24.000008337255732,-2.2806524496524743
5.571421513262265,-24.022181579007235,-2.2760906239974843
5.265794748619863,-24.041178330876875,-2.271596377985233
4.960690175821103,-24.05701576377618,-2.2671696924845683
4.656130342273432,-24.06971098252044,-2.2628105446465376
4.352137434918651,-24.079281021125105,-2.258518908106484
4.048733288474063,-24.085742838315934,-2.254294753181406
3.745939393623813,-24.089113313248056,-2.2501380470626438
3.4437769051584137,-24.089409241429248,-2.2460487540039544
3.142266650060496,-24.086647330842656,-2.2420268355050403
2.84142913553498,-24.080844198264433,-2.2380722504905934
2.541284556982031,-24.072016365771795,-2.234184955484924
2.2418528059112335,-24.060180257436958,-2.230364904782229
1.943153477795703,-24.045352196202675,-2.22661205061257
1.6452058798646112,-24.027548400935224,-2.222926343303632
1.3480290388334157,-24.006784983650398,-2.2193077314383114
1.0516417085702368,-23.98307794690871,-2.215756162008216
0.756062377697878,-23.956443181375608,-2.212271580563118
0.46130927713044856,-23.926896463542928,-2.2088539313564537
0.16740038754392583,-23.89445345360767,-2.2055031574869046
-0.12564655321997162,-23.85912969350444,-2.202219201036137
-0.41781404281714374,-23.82094060508788,-2.1990020032027644
-0.7090848071321546,-23.779901488461608,-2.195851504432589
-0.9994417930773439,-23.73602752045008,-2.1927676445451785
-1.2888681614602295,-23.68933375321016,-2.1897503628568544
-1.5773472799196504,-23.639835112979057,-2.1867995983001363
-1.8648627159303748,-23.5875463989554,-2.1839152895397063
-2.151398229876788,-23.532482282310458,-2.181097375084957
-2.4369377681952464,-23.47465730532638,-2.178345793399169
-2.7214654565853125,-23.41408588065867,-2.1756604830053856
-3.004965593289696,-23.350782290719927,-2.1730413825890333
-3.2874226424427824,-23.284760687182228,-2.1704884310973442
-3.568821227487561,-23.216035090595412,-2.1680015678356335
-3.8491461246607273,-23.144619390118777,-2.165580732560484
-4.1283822565456925,-23.070527343363594,-2.163225865569894
-4.406514685693132,-22.99377257634417,-2.160936907790427
-4.683528608308881,-22.914368583535033,-2.158713800861424
-4.959409348008597,-22.832328728032067,-2.1565564872163216
-5.234142349638931,-22.747666241815423,-2.154464910161122
-5.5077131731647135,-22.660394226112157,-2.1524390139500587
-5.7801074876217005,-22.570525651856613,-2.150478743858511
-6.051311065134411,-22.478073360246537,-2.1485840462531964
-6.321309774998529,-22.38305006339328,-2.146754868659696
-6.590089577827394,-22.285468345064164,-2.1449911598273435
-6.857636519761943,-22.185340661515426,-2.1432928697915266
-7.1239367267437945,-22.082679342414085,-2.1416599499334286
-7.388976398850511,-21.977496591847324,-2.1400923530372564
-7.652741804692951,-21.86980448941771,-2.138590033344983
-7.915219275873748,-21.759614991423124,-2.137152946608643
-8.176395201506553,-21.646939932119906,-2.1357810501402117
-8.436256022795387,-21.531791025068095,-2.1344743028591044
-8.694788227673538,-21.41417986455753,-2.1332326653373177
-8.951978345501393,-21.2941179271137,-2.1320560998422455
-9.2078129418227,-21.171616573082435,-2.1309445703772028
-9.462278613178592,-21.046687048292274,-2.1298980427196734
-9.71536198197885,-20.91934048579382,-2.1289164844573163
-9.967049691429958,-20.78958790767508,-2.127999865021742
-10.217328400519097,-20.657440226952165,-2.1271481557200995
-10.46618477905398,-20.522908249534463,-2.126361329764472
-10.713605502757506,-20.38600267626389,-2.125639362299119
-10.959577248417215,-20.24673410502738,-2.124982230425577
-11.204086689088662,-20.105113032942256,-2.124389913225628
-11.447120489352454,-19.96114985861397,-2.1238623917821657
-11.688665300624407,-19.81485488446578,-2.1233996491979608
-11.92870775651837,-19.666238319140078,-2.123001670612343
-12.16723446826148,-19.515310279970986,-2.122668443215812
-12.404232020161064,-19.362080795528083,-2.1223999562625835
-12.639686965123373,-19.20655980823098,-2.1221962010810858
-12.873585820223202,-19.048757177034766,-2.122057171082402
-13.10591506232467,-18.888682680185966,-2.1219828617666763
-13.336661123752343,-18.726346018049373,-2.121973270727485
-13.565810388012899,-18.561756816005417,-2.122028397654164
-13.793349185566777,-18.39492462741837,-2.122148244332116
-14.01926378964982,-18.225858936675408,-2.122332814641075
-14.243540412144672,-18.054569162296758,-2.1225821145513444
-14.466165199501797,-17.881064660117133,-2.122896152117995
-14.687124228710186,-17.705354726538587,-2.1232749374730244
-14.9064035033174,-17.52744860185545,-2.1237184828154714
-15.123988949499358,-17.347355473651145,-2.1242268023994777
-15.339866412179488,-17.165084480267943,-2.124799912520292
-15.554021651197674,-16.980644714349445,-2.1254378314982003
-15.766440337528874,-16.79404522645675,-2.1261405796603783
-15.977108049551706,-16.60529502875856,-2.1269081793206537
-16.186010269367202,-16.414403098795944,-2.1277406547571593
-16.39313237916793,-16.221378383322133,-2.128638032187866
-16.59845965765788,-16.026229802218264,-2.1296003397439787
-16.801977276523388,-15.828966252485527,-2.1306276074411783
-17.00367029695569,-15.62959661231438,-2.13171986714869
-17.20352366622525,-15.428129745231892,-2.1328771525561545
-17.401522214308805,-15.224574504327459,-2.1340994991382876
-17.597650650569253,-15.01893973655827,-2.1353869441172972
-17.79189356048955,-14.811234287134775,-2.136739526423039
-17.984235402460698,-14.601467003987553,-2.138157286650882
-18.174660504625155,-14.389646742316016,-2.139640267017257
-18.363153061776163,-14.175782369220075,-2.1411885113128624
-18.549697132313952,-13.959882768415738,-2.142802064853494
-18.734276635259715,-13.741956845035467,-2.1444809744284647
-18.91687534732854,-13.522013530514355,-2.1462252882465966
-19.097476900062293,-13.30006178756298,-2.148035055879729
-19.276064777023453,-13.076110615228275,-2.1499103282037266
-19.45262231105145,-12.850169054043,-2.1518511573369423
-19.627132681582463,-12.622246191265317,-2.1538575965760973
-19.799578912034427,-12.392351166209085,-2.1559297003295437
-19.969943867258273,-12.160493175666403,-2.158067524047862
-20.138210251057348,-11.926681479423108,-2.1602711241517647
-20.30436060377636,-11.69092540586846,-2.1625405579572448
-20.468377299961684,-11.453234357700211,-2.1648758835979445
-20.630242546094607,-11.213617817726071,-2.167277159944685
-20.789938378399754,-10.972085354762593,-2.1697444465221203
-20.94744666073021,-10.728646629632646,-2.172277803422456
-21.102749082531687,-10.483311401262805,-2.1748772912162027
-21.25582715688773,-10.23608953288123,-2.177542970859892
-21.40666221864818,-9.986990998317783,-2.1802749036007243
-21.555235422643367,-9.73602588840679,-2.1830731508780823
-21.70152774198614,-9.483204417494147,-2.185937774221863
-21.845519966464547,-9.228536930049334,-2.188868835147576
-21.98719270102768,-8.9720339073836,-2.1918663950481494
-22.126526364367248,-8.713705974475333,-2.1949305150823855
-22.263501187597857,-8.453563906903621,-2.198061256060019
-22.398097213038884,-8.191618637890796,-2.2012586783233035
-22.530294293100937,-7.927881265455022,-2.204522841625087
-22.66007208927997,-7.662363059674006,-2.207853805003301
-22.787410071262425,-7.395075470060208,-2.2112516266518107
-22.91228751614462,-7.126030133048989,-2.2147163637875655
-23.03468350776993,-6.85523887959982,-2.2182480725139833
-23.154576936187272,-6.582713742911935,-2.2218468076805133
-23.271946497234588,-6.308466966254535,-2.2255126227383073
-23.386770692251222,-6.032511010912433,-2.2292455695919418
-23.49902782792293,-5.754858564247844,-2.233045698447127
-23.60869601626377,-5.475522547878311,-2.236913057654336
-23.71575317473883,-5.194516125971836,-2.2408476935482877
-23.82017702653225,-4.911852713658863,-2.24484965028323
-23.921945100964823,-4.627545985562076,-2.2489189696639444
-24.02103473406575,-4.341609884443468,-2.25305569097242
-24.117423069303165,-4.054058629969481,-2.2572598507901245
-24.211087058478277,-3.764906727593489,-2.2615314828158106
-24.30200346278791,-3.474168977556176,-2.265870617678795
-24.390148854060563,-3.1818604840030487,-2.270277282747645
-24.475499616171135,-2.88799666421896,-2.2747515019342126
-24.55803194663951,-2.592593257979261,-2.2792932954929466
-24.637721858418473,-2.295666337016874,-2.2839026798154296
-24.71454518187651,-1.9972323146045063,-2.2885796672200773
-24.788477566981054,-1.6973079552511448,-2.293324265736929
-24.859494485688046,-1.395910384512087,-2.2981364788874967
-24.927571234543652,-1.0930570989108912,-2.3030163054595807
-24.99268293750422,-0.7887659759721433,-2.3079637392770285
-25.054804548980563,-0.48305528436359124,-2.3129787689643626
-25.11391085711293,-0.17594369414586186,-2.3180613777062313
-25.169976487282927,0.1325497128722083,-2.3232115430016345
-25.22297590586904,0.4424054326746167,-2.3284292364128687
-25.272883424252264,0.7536035284778063,-2.333714423309158
-25.319673203078676,1.0661236200714288,-2.339067062604911
-25.36331925678571,1.379944873063066,-2.3444871064925823
-25.403795458399152,1.6950459880297952,-2.349974500170081
-25.441075544607898,2.0114051895795604,-2.3555291815627117
-25.475133121123605,2.3290002153261904,-2.3611510810395986
-25.505941668332536,2.647808304781552,-2.366840121124582
-25.533474547246904,2.9678061881687228,-2.372596216201551
-25.557705005763182,3.2889700751605355,-2.3784192722141984
-25.578606185234843,3.6112756435481215,-2.3843091863601904
-25.596151127367182,3.9346980278441936,-2.3902658467797253
-25.610312781441817,4.259211807826144,-2.396289132238492
-25.621064011878584,4.5847909970244975,-2.402378911805017
-25.628377606142696,4.911409031162635,-2.408535044522416
-24.91673985096311,5.092798585845756,-2.347352928039962
-24.873071362776447,5.402678986431656,-2.349308475860112
-24.825819177555736,5.712316601641529,-2.351289829711353
-24.77497999449411,6.021672982340628,-2.3532968128388365
-24.7205508512638,6.330709495982392,-2.3553292449679066
-24.662529129009716,6.639387327408364,-2.3573869422705647
-24.60091255741445,6.947667479750639,-2.359469717331927
-24.53569921983332,7.255510775439581,-2.361577379116713
-24.466887558498016,7.562877857319506,-2.3637097329357752
-24.394476379787296,7.869729189875223,-2.365866580412704
-24.31846485956307,8.176025060572332,-2.3680477194505443
-24.238852548570105,8.481725581314032,-2.3702529441986266
-24.1556393778978,8.786790690017035,-2.3724820450195714
-24.068825664501844,9.091180152309784,-2.3747348084564677
-23.978412116784046,9.394853563355596,-2.3770110172002776
-23.884399840228202,9.697770349803442,-2.379310450057481
-23.786790343089965,9.999889771869313,-2.3816328819180015
-23.685585542138337,10.301170925550975,-2.383978083723439
-23.978284050560028,10.780281183054162,-2.4265719421721563
-23.865683209792447,11.083702733737042,-2.428759474165389
-23.74965380434313,11.386179498765177,-2.4309890275072377
-23.630198448964908,11.687677421305244,-2.4332604861871525
-23.50731999821786,11.988162290170543,-2.435573730723244
-23.381021551540165,12.287599738536903,-2.4379286380936636
-23.251306458427074,12.585955242750938,-2.4403250816668027
-23.118178323717476,12.8831941212337,-2.442762931130336
-22.98164101298752,13.17928153348271,-2.445242052419117
-22.84169865805065,13.474182479175587,-2.447762307641948
-22.698355662563205,13.767861797378519,-2.450323555007234
-22.551616707734944,14.060284165862692,-2.4529256487475415
-22.40148675814369,14.351414100531946,-2.4555684390430876
-22.247971067653125,14.641215954964798,-2.4582517719441634
-22.091075185432587,14.92965392007477,-2.460975489292529
-21.930804962078184,15.216692023891593,-2.4637394286417926
-21.767166555833843,15.502294131467236,-2.4665434231767964
-21.60016643891109,15.786423944910174,-2.46938730163204
-21.429811403906314,16.069045003551334,-2.472270888209158
-21.25610857031422,16.350120684245166,-2.475194002493485
-21.079065391135863,16.629614201809595,-2.478156459369729
-20.898689659579816,16.907488609608393,-2.481158068936791
-20.714989515854654,17.18370680027972,-2.484198636421753
-20.52797345405125,17.45823150661436,-2.487277962093068
-19.84409862310327,17.300730866122144,-2.4299592078274515
-19.626081246399465,17.539177558982168,-2.429437254643489
-19.405149505285273,17.774832500610298,-2.428908888810235
-19.1813403610916,18.007660115179476,-2.428374198358561
-18.954691207882487,18.23762534479143,-2.427833272261742
-18.725239864504402,18.46469365465167,-2.4272862004167566
-18.493024566577294,18.688831038106848,-2.4267330736254618
-18.2580839584301,18.9100040215438,-2.426173983575658
-18.020457084983363,19.12817966915001,-2.425609022822044
-17.780183383581658,19.343325587535094,-2.4250382847670675
-17.537302675778854,19.555409930212686,-2.424461863641687
-17.291855159078445,19.7644014019429,-2.42387985448604
-17.043881398631957,19.97026926293488,-2.4232923531300257
-16.7934223188981,20.172983332909293,-2.422699456173817
-16.54051919526528,20.37251399502078,-2.4221012609682973
-16.28521364564014,20.568832199640273,-2.421497865595436
-16.027547622004725,20.761909467997288,-2.4208893688486004
-15.767563401945127,20.951717895682087,-2.4202758702128238
-15.505303580154047,21.138230156007957,-2.4196574698450157
-15.240811059909893,21.321419503233905,-2.4190342685541433
-13.180711045291849,18.92610190346946,-2.4145411459944204
-12.944485427051259,19.08203034826656,-2.413985273097628
-12.706397277617453,19.234980188676793,-2.413425414749974
-12.466484977657911,19.384929672720848,-2.4128616609284173
-12.22478714879703,19.531857561899198,-2.412294102113416
-11.981342646296747,19.675743133486986,-2.411722829271945
-11.736190551726759,19.816566182714748,-2.411147933840499
-11.489370165626283,19.954307024835273,-2.410569507708088
-11.240921000159327,20.08894649707702,-2.409987643199226
-10.990882771765438,20.220465960484585,-2.4094024330569197
-10.73929539380784,20.34884730164664,-2.408813970425668
-10.486198969220856,20.474072934311877,-2.4082223488344625
-10.231633783158571,20.596125800893528,-2.4076276621798054
-9.975640295646457,20.714989373863062,-2.407030004708746
-9.718259134237924,20.830647657033595,-2.406429471001936
-9.459531086677584,20.943085186733786,-2.4058261559567087
-9.199497093572964,21.05228703287284,-2.405220154770196
-8.938198241076492,21.158238799897298,-2.404611562922471
-8.67567575357944,21.260926627640465,-2.4040004761597293
-8.411970986419611,21.360337192065177,-2.4033869904775167
-8.147125418604354,21.45645770590074,-2.402771202103997
-7.881180645550642,21.54927591917487,-2.402153207483272
-7.614178371843862,21.638780119641506,-2.40153310325875
-7.346160404016763,21.724959133105408,-2.4009109862565774
-7.077168643350356,21.807802323644392,-2.400286953469122
-6.807245078698129,21.887299593730216,-2.3996611020385243
-6.536431779335192,21.96344138424904,-2.399033529240316
-6.264770887833787,22.036218674422493,-2.398404332467106
-5.992304612966626,22.105622981630237,-2.397773609212337
-5.719075222639482,22.17164636113526,-2.3971414570541243
-5.445125036854455,22.234281405712785,-2.3965079736391712
-5.170496420705195,22.29352124518391,-2.395873256666765
-4.895231777405496,22.34935954585515,-2.3952374038728608
-4.61937354135255,22.401790509864846,-2.3946005130142507
-4.342964171225993,22.450808874437726,-2.3939626818528277
-4.066046143124209,22.496409911048644,-2.393324008139939
-3.7886619437388975,22.53858942449672,-2.39268458960084
-3.510854063569161,22.57734375189101,-2.3920445239192425
